ply
format ascii 1.0
element vertex 128
comment vertices
property float x
property float y
property float z
end_header
-0.397920668125152588 1.35685980319976807 -1.62984442710876465
-4.59961652755737305 8.36211872100830078 0.0697946622967720032
3.86702585220336914 6.54025506973266602 -0.340881168842315674
-0.707344770431518555 5.88509845733642578 -0.876904189586639404
2.13914108276367188 3.74752044677734375 -1.39409613609313965
-3.56557011604309082 6.67055082321166992 -2.27030611038208008
1.24543201923370361 7.27955389022827148 0.370211184024810791
-1.99943351745605469 7.85895442962646484 -0.0305381119251251221
-2.55196046829223633 4.34473419189453125 -0.666575908660888672
-0.434073209762573242 3.6210017204284668 -1.14836585521697998
1.92443263530731201 6.68428134918212891 -1.66521656513214111
-4.39451217651367188 6.3387913703918457 -0.441459208726882935
1.60468387603759766 1.51087546348571777 -1.75666582584381104
1.06353700160980225 5.47805881500244141 -0.527421891689300537
-1.85800778865814209 2.83399462699890137 -1.86430811882019043
-1.64756548404693604 7.33828973770141602 -1.6851276159286499
-0.216769874095916748 7.54870176315307617 -0.641210496425628662
3.0838770866394043 5.19861650466918945 -0.832265973091125488
-3.33860254287719727 7.49319362640380859 -0.923763513565063477
0.892576754093170166 2.7575380802154541 -1.04843032360076904
-2.12358617782592773 5.99166393280029297 -0.378141462802886963
2.33587837219238281 4.26920604705810547 0.0539339594542980194
0.796765148639678955 4.30211877822875977 -1.69477546215057373
-1.74456155300140381 5.96538448333740234 -2.23607158660888672
-1.47886943817138672 4.85563421249389648 -1.37172150611877441
2.61648797988891602 7.052764892578125 -0.0779643058776855469
-2.92197537422180176 5.17437744140625 -1.65482771396636963
1.4719841480255127 5.44773769378662109 -1.76246488094329834
0.634382426738739014 0.899427890777587891 -1.07221269607543945
0.303838193416595459 6.74793434143066406 -1.43772482872009277
2.17322778701782227 2.54070496559143066 -1.11850965023040771
-1.59120035171508789 1.61376118659973145 -1.66192722320556641
2.95399188995361328 6.32399654388427734 -1.17298150062561035
-0.285762161016464233 4.75264215469360352 -1.70389890670776367
-0.48701128363609314 2.2187352180480957 -0.843018531799316406
-3.17396378517150879 7.93991518020629883 0.144855588674545288
-0.962142705917358398 0.594489932060241699 -0.984319210052490234
1.20612561702728271 7.04846477508544922 -0.742903947830200195
0.435148417949676514 4.35552310943603516 -0.627119719982147217
0.180803656578063965 2.37998437881469727 -1.82261323928833008
3.74689674377441406 5.52512168884277344 0.0772636085748672485
-0.776845157146453857 2.79591965675354004 -1.71431469917297363
3.96412515640258789 6.13362503051757812 -1.36636638641357422
-0.17236754298210144 7.85644960403442383 0.353407531976699829
1.74581193923950195 4.59220981597900391 -0.940027713775634766
1.56051003932952881 2.92889237403869629 -1.85825777053833008
-1.34408807754516602 3.6751863956451416 -1.59234452247619629
-1.13494443893432617 7.40903472900390625 0.208838284015655518
-0.857150375843048096 7.04352569580078125 -1.13917779922485352
-4.03996181488037109 7.52252435684204102 -0.286115854978561401
0.31233486533164978 3.28272461891174316 -1.74343633651733398
-2.35345792770385742 5.27448558807373047 -0.944296836853027344
-1.58692240715026855 8.0709228515625 -1.16275215148925781
-0.0932871922850608826 1.29358220100402832 -0.719439566135406494
1.29870152473449707 3.81677651405334473 -1.08441746234893799
0.691247165203094482 1.91687297821044922 -1.29024553298950195
-1.6864926815032959 5.99877738952636719 -1.13130855560302734
-0.87955176830291748 5.36058330535888672 -1.74817430973052979
2.12432670593261719 6.66622543334960938 -0.650309205055236816
-1.97456800937652588 4.17646455764770508 -1.31224191188812256
2.07127594947814941 7.04156970977783203 0.560613393783569336
-0.986054420471191406 4.2350921630859375 -1.0822451114654541
-4.27341079711914062 8.18139839172363281 -0.725477993488311768
-0.127968057990074158 5.11876678466796875 -0.986297845840454102
-1.14372658729553223 7.57286500930786133 -0.586615204811096191
-2.70929503440856934 7.86108922958374023 -1.23369002342224121
1.52627897262573242 2.24662017822265625 -1.48293697834014893
-0.770072519779205322 2.01409578323364258 -1.73044610023498535
-0.0759197771549224854 2.88309502601623535 -1.22625875473022461
0.576593279838562012 6.97102737426757812 -0.328694373369216919
0.320703864097595215 3.87299895286560059 -1.19478511810302734
2.26085758209228516 4.75606250762939453 -1.44489097595214844
0.552059173583984375 7.52146148681640625 0.317907661199569702
-2.70787310600280762 7.13349580764770508 -0.837620317935943604
2.73936700820922852 6.97724628448486328 -0.89295196533203125
0.601008951663970947 1.13709795475006104 -1.76002156734466553
3.17873883247375488 6.60259008407592773 -0.127292603254318237
0.969678759574890137 4.62859773635864258 -1.02751326560974121
-0.895194411277770996 4.99737119674682617 -0.984221875667572021
0.334816455841064453 7.41990947723388672 -1.0759350061416626
1.80194330215454102 3.2356264591217041 -1.0328906774520874
-0.00803941488265991211 3.75187182426452637 -0.579234540462493896
1.16329145431518555 3.45170283317565918 -1.64664375782012939
2.62400007247924805 5.88042116165161133 -0.807197988033294678
-3.829833984375 6.67953872680664062 -0.403841793537139893
-2.88739705085754395 5.00351524353027344 -0.673837542533874512
-2.93581891059875488 4.52162885665893555 -1.60078525543212891
-1.5369645357131958 2.22122454643249512 -1.89794492721557617
0.259774506092071533 2.35374069213867188 -1.05793893337249756
-3.33870506286621094 8.04169654846191406 -0.472327440977096558
0.0364676713943481445 5.73393630981445312 -0.909971535205841064
-1.60598337650299072 5.57369184494018555 -0.665182352066040039
-0.916088223457336426 4.09421014785766602 -1.80150461196899414
-2.0283806324005127 4.73342514038085938 -0.9913901686668396
1.51188194751739502 2.67668032646179199 -0.952651917934417725
2.07669544219970703 7.15207195281982422 -1.27486193180084229
-1.94044792652130127 4.62697696685791016 -1.74233400821685791
-1.01894915103912354 1.31968021392822266 -1.66328668594360352
3.46159529685974121 6.26003074645996094 -0.826138317584991455
2.48117375373840332 6.65700149536132812 -1.39023983478546143
1.02259540557861328 2.14394021034240723 -1.82061123847961426
-0.0656844079494476318 0.798792004585266113 -1.08256518840789795
-2.05068540573120117 7.86290264129638672 -0.640860080718994141
-0.7831459641456604 1.74569547176361084 -1.18141019344329834
0.335370957851409912 1.41491580009460449 -1.20201313495635986
1.5778886079788208 6.88090276718139648 -0.295921891927719116
3.34812259674072266 5.2327728271484375 -0.291238903999328613
0.769099652767181396 2.90877079963684082 -1.62714087963104248
1.54678738117218018 6.70264482498168945 -1.20097625255584717
-4.63655519485473633 7.81862735748291016 -0.424715518951416016
0.217378199100494385 4.45883083343505859 -1.16731357574462891
0.755098223686218262 6.94924163818359375 0.388407349586486816
0.837487697601318359 6.90309429168701172 -1.24013650417327881
-1.26160883903503418 7.45482969284057617 -1.2495419979095459
-3.22031211853027344 7.36080741882324219 0.215988785028457642
-2.69096159934997559 7.65595912933349609 -0.577881038188934326
-1.19421577453613281 3.71054744720458984 -0.943813562393188477
-0.255718052387237549 1.88412201404571533 -1.37349200248718262
-3.9858551025390625 8.06476688385009766 -0.133452236652374268
0.592283546924591064 3.35833120346069336 -1.26240968704223633
-1.57230734825134277 4.23619747161865234 -0.929208576679229736
-1.39278125762939453 3.09254026412963867 -1.69836103916168213
-0.476257920265197754 4.44518566131591797 -1.15167355537414551
-0.890522360801696777 1.13798332214355469 -0.911431431770324707
-0.412505507469177246 3.27193379402160645 -1.57023096084594727
2.80348968505859375 4.82371044158935547 -1.10660147666931152
-3.87775826454162598 7.831939697265625 -0.82867199182510376
1.98172235488891602 2.91190171241760254 -1.44695138931274414
