ply
format ascii 1.0
element vertex 773
comment vertices
property float x
property float y
property float z
end_header
3.38329362869262695 6.51699495315551758 0.00459980964660644531
-0.236940741539001465 2.01356077194213867 -1.11209261417388916
-2.09590482711791992 7.82589292526245117 -0.188389956951141357
-2.53467440605163574 5.36052179336547852 -0.491055399179458618
-0.352934569120407104 5.47009897232055664 -1.11652541160583496
1.13889086246490479 4.02341413497924805 -1.3880770206451416
2.10177421569824219 6.4718022346496582 -1.21073746681213379
-0.90213322639465332 1.49737167358398438 -1.47341430187225342
-0.285762161016464233 4.75264215469360352 -1.70389890670776367
1.38916397094726562 1.3540341854095459 -1.84254121780395508
1.42544138431549072 2.49767565727233887 -1.0926826000213623
1.27163863182067871 3.17762017250061035 -1.30830729007720947
0.259774506092071533 2.35374069213867188 -1.05793893337249756
-0.199004307389259338 1.79824590682983398 -1.60819196701049805
0.472920417785644531 1.95041549205780029 -1.92166948318481445
0.178647249937057495 0.962379217147827148 -1.30777907371520996
1.21919393539428711 7.12151765823364258 -0.93601524829864502
-3.74477910995483398 7.82198286056518555 -0.716163873672485352
-4.27341079711914062 8.18139839172363281 -0.725477993488311768
0.98861008882522583 3.0710906982421875 -0.747597336769104004
1.11932373046875 2.42634105682373047 -1.56515467166900635
0.886948704719543457 2.1817021369934082 -1.56023120880126953
-0.163541436195373535 3.24071669578552246 -1.32949936389923096
-1.68563675880432129 5.76219749450683594 -0.587684750556945801
1.97604060173034668 4.15210628509521484 -1.15658831596374512
1.14918005466461182 3.43641257286071777 -1.6225360631942749
0.0489804521203041077 1.35887777805328369 -1.6106255054473877
-2.42618393898010254 4.97452974319458008 -1.0599825382232666
-1.20804679393768311 1.88458263874053955 -1.69115245342254639
0.353773206472396851 2.97565031051635742 -1.64733576774597168
0.719212114810943604 1.0776139497756958 -1.07086706161499023
0.00507681956514716148 1.16805863380432129 -1.13432765007019043
-4.15468740463256836 7.94351053237915039 -0.880759775638580322
1.15129613876342773 2.36351299285888672 -1.18111443519592285
0.644241988658905029 2.08937406539916992 -1.1231694221496582
-3.28672623634338379 7.81930923461914062 -0.393639653921127319
1.73115253448486328 3.3160395622253418 -1.43608224391937256
0.787718713283538818 7.41051816940307617 0.235007017850875854
-2.25592947006225586 5.2341313362121582 -0.85823744535446167
2.69441533088684082 6.61582660675048828 -1.089394211769104
0.12085878849029541 3.54860639572143555 -1.1305464506149292
0.608001708984375 0.973917961120605469 -1.38793098926544189
-1.07809197902679443 1.66176533699035645 -1.49390256404876709
0.40009915828704834 1.81399202346801758 -1.19137382507324219
0.787683010101318359 6.975006103515625 -0.214137524366378784
-0.0902346968650817871 2.56523633003234863 -1.14278483390808105
-1.31797599792480469 3.6869814395904541 -1.40860295295715332
1.47351658344268799 6.93672513961791992 -0.60892331600189209
1.70254933834075928 2.85497856140136719 -1.51926350593566895
-1.06798875331878662 4.28340959548950195 -1.3906630277633667
-1.5764014720916748 3.16744828224182129 -1.65287482738494873
-0.123067080974578857 1.3552546501159668 -1.63095080852508545
0.0830250456929206848 3.76277971267700195 -0.855697095394134521
2.32227134704589844 4.83420944213867188 -1.10347342491149902
-0.293817043304443359 3.18723464012145996 -1.21769046783447266
1.13213837146759033 7.21923685073852539 -1.17773187160491943
-0.633154213428497314 5.77008771896362305 -0.883578658103942871
-1.03661668300628662 7.61385917663574219 -0.367273449897766113
0.0227660536766052246 4.51185369491577148 -0.797877013683319092
-3.48691606521606445 7.35212564468383789 -0.95483928918838501
2.57879328727722168 6.98143196105957031 -1.03502953052520752
0.351113617420196533 4.03179693222045898 -0.776996910572052002
-2.92197537422180176 5.17437744140625 -1.65482771396636963
-2.88739705085754395 5.00351524353027344 -0.673837542533874512
0.933641552925109863 5.67599201202392578 -0.872088849544525146
-0.849110186100006104 2.79790639877319336 -1.84243762493133545
2.18271088600158691 6.73963737487792969 -1.23307108879089355
-0.455977261066436768 2.92644405364990234 -1.36860942840576172
1.9929649829864502 4.71144247055053711 -1.3305896520614624
0.0592164099216461182 3.14012742042541504 -1.17804765701293945
0.504872322082519531 3.65783905982971191 -1.39711737632751465
0.676414132118225098 2.34408378601074219 -1.67209911346435547
-2.34254789352416992 5.3193511962890625 -0.854487955570220947
0.0711545646190643311 2.20247340202331543 -1.26417279243469238
-0.47405707836151123 7.49278926849365234 0.316173732280731201
-2.5728297233581543 4.54697895050048828 -1.00370943546295166
-0.28343084454536438 4.50557327270507812 -1.20548272132873535
0.73521190881729126 2.30569052696228027 -1.36287081241607666
1.41356170177459717 1.9317166805267334 -1.70823657512664795
1.57482433319091797 2.74705815315246582 -1.87424147129058838
-1.57230734825134277 4.23619747161865234 -0.929208576679229736
-0.669350028038024902 2.2592308521270752 -1.55297064781188965
0.552701592445373535 4.22448110580444336 -1.18555641174316406
-3.03895664215087891 8.05795478820800781 0.00919970870018005371
-0.519127130508422852 3.53169512748718262 -1.50799286365509033
0.764023184776306152 3.55123162269592285 -1.40663671493530273
0.665297508239746094 7.00584268569946289 -1.16713428497314453
3.34812259674072266 5.2327728271484375 -0.291238903999328613
-1.2986443042755127 1.90582489967346191 -1.62466263771057129
0.27169501781463623 2.47529888153076172 -1.22435593605041504
-1.00640547275543213 3.03149127960205078 -1.4139552116394043
-2.62871885299682617 5.24002933502197266 -0.804184556007385254
0.0841993987560272217 1.51987147331237793 -1.08195877075195312
1.4872821569442749 6.67652463912963867 -1.05439651012420654
-3.135498046875 7.90703439712524414 -0.293948829174041748
-0.226283550262451172 1.81924903392791748 -1.19098114967346191
-0.828581273555755615 3.76059317588806152 -1.16442680358886719
-2.06475973129272461 5.34321975708007812 -0.550848662853240967
0.881174385547637939 4.56794500350952148 -1.17714512348175049
-0.12715575098991394 1.18628120422363281 -1.65641593933105469
-3.9858551025390625 8.06476688385009766 -0.133452236652374268
-0.890522360801696777 1.13798332214355469 -0.911431431770324707
-3.04792451858520508 7.75610637664794922 0.166095554828643799
0.586441159248352051 1.61354398727416992 -0.990003764629364014
1.81507933139801025 7.32417678833007812 0.300524592399597168
1.13081574440002441 2.39111709594726562 -1.43683433532714844
-0.0326010547578334808 7.31474542617797852 -0.614626824855804443
1.45560729503631592 4.09315013885498047 -0.841167092323303223
2.13183283805847168 4.53202104568481445 -0.982725858688354492
0.226364001631736755 2.4145205020904541 -0.906716585159301758
-1.40032780170440674 2.49205732345581055 -1.79032278060913086
0.435148417949676514 4.35552310943603516 -0.627119719982147217
1.95286571979522705 3.16482234001159668 -0.985454022884368896
-0.219755113124847412 3.22239160537719727 -1.44070672988891602
-1.05162227153778076 3.70509958267211914 -1.25747060775756836
1.89937734603881836 2.60309147834777832 -1.88991463184356689
-1.07896745204925537 3.39151096343994141 -1.68815195560455322
-0.929610371589660645 5.32844018936157227 -1.00452756881713867
-3.58404326438903809 7.52214479446411133 -0.525187075138092041
0.205877006053924561 1.41473400592803955 -0.984503626823425293
-0.495228946208953857 2.04430842399597168 -0.801664888858795166
-1.12929069995880127 2.88084602355957031 -1.57357394695281982
-0.762383162975311279 5.49211692810058594 -1.34149634838104248
-1.18757343292236328 7.30092716217041016 -1.33389759063720703
-0.521058082580566406 1.98471164703369141 -1.39172101020812988
1.20375466346740723 2.32495307922363281 -1.64417719841003418
1.73237764835357666 4.55526018142700195 -1.01056790351867676
0.135183781385421753 3.29724025726318359 -1.23022818565368652
2.26085758209228516 4.75606250762939453 -1.44489097595214844
-2.0283806324005127 4.73342514038085938 -0.9913901686668396
3.873077392578125 6.3533625602722168 -1.1302032470703125
-0.0876581445336341858 3.4501042366027832 -1.47977256774902344
2.36496353149414062 6.71623039245605469 -0.70669633150100708
0.00739760696887969971 3.08194684982299805 -1.17118895053863525
1.26269614696502686 2.92203569412231445 -1.5929943323135376
1.83533048629760742 3.48435640335083008 -1.01299834251403809
-0.634251534938812256 3.26923322677612305 -1.0527336597442627
0.268256127834320068 2.05417895317077637 -1.22722065448760986
1.33386337757110596 3.26697993278503418 -1.1653144359588623
0.630198776721954346 7.23304653167724609 0.274127095937728882
1.41529488563537598 6.90306806564331055 0.0552728772163391113
0.644044637680053711 3.07004594802856445 -1.75500965118408203
2.99237608909606934 7.02257919311523438 -0.206036105751991272
-0.255718052387237549 1.88412201404571533 -1.37349200248718262
2.48117375373840332 6.65700149536132812 -1.39023983478546143
-0.927354633808135986 1.93600630760192871 -1.34285318851470947
-0.466143339872360229 2.16969966888427734 -1.06494045257568359
-0.580350518226623535 1.17331910133361816 -1.54056191444396973
-3.26192021369934082 7.62414932250976562 -0.0955611765384674072
-1.24750447273254395 5.89070892333984375 -1.16785693168640137
-0.0443107374012470245 3.68845176696777344 -1.52800655364990234
1.29659771919250488 7.25359201431274414 0.279281914234161377
-3.5566253662109375 7.64999580383300781 -0.844954729080200195
-1.24930000305175781 4.25415897369384766 -0.921877145767211914
1.30280780792236328 7.1967930793762207 -0.424232244491577148
-1.1082007884979248 1.50074255466461182 -1.47750973701477051
1.20425474643707275 2.66646003723144531 -1.13077163696289062
1.59184598922729492 4.04215002059936523 -1.19710111618041992
0.161774635314941406 3.7250983715057373 -0.905078411102294922
1.29473400115966797 3.19103145599365234 -1.7232973575592041
-2.17122864723205566 4.66103553771972656 -1.15116345882415771
-3.39001011848449707 7.73531627655029297 0.201659828424453735
3.17873883247375488 6.60259008407592773 -0.127292603254318237
0.27463918924331665 2.15694880485534668 -1.8798525333404541
1.43460118770599365 7.08939599990844727 -0.121161378920078278
2.10556411743164062 6.67030143737792969 -1.1129993200302124
1.11364269256591797 3.00305032730102539 -1.12697196006774902
1.36532056331634521 1.30182504653930664 -1.81710195541381836
0.224533334374427795 2.03293800354003906 -1.1538693904876709
1.77598679065704346 2.82547736167907715 -1.33231067657470703
1.27820658683776855 2.42687535285949707 -1.6329120397567749
0.603970468044281006 3.81986093521118164 -1.36791086196899414
0.256756693124771118 0.707605123519897461 -1.14825820922851562
-2.61368799209594727 5.0160670280456543 -0.859096765518188477
1.99453127384185791 6.89008426666259766 -1.24482846260070801
-0.815163373947143555 6.98941278457641602 -1.03904688358306885
-0.881490945816040039 5.8149409294128418 -0.901977121829986572
-0.481885850429534912 5.87477397918701172 -1.03656351566314697
3.25168132781982422 6.47694873809814453 -0.507939577102661133
0.890101313591003418 7.04398155212402344 -0.241379082202911377
-0.251673787832260132 7.86912059783935547 0.292320162057876587
2.975494384765625 6.57204389572143555 -1.19335067272186279
0.356271535158157349 3.97179341316223145 -1.02260756492614746
-0.529022634029388428 1.28287482261657715 -1.65030241012573242
0.0891654565930366516 1.08646702766418457 -0.874292731285095215
-2.05188226699829102 4.70873546600341797 -1.36468625068664551
0.207938253879547119 0.823646783828735352 -1.03351986408233643
-0.857150375843048096 7.04352569580078125 -1.13917779922485352
-0.272605687379837036 1.50968790054321289 -1.67103719711303711
0.108577817678451538 3.52135753631591797 -1.35772204399108887
0.604380011558532715 6.92767953872680664 -1.14156782627105713
-0.198711603879928589 1.83095824718475342 -1.12216854095458984
-0.986054420471191406 4.2350921630859375 -1.0822451114654541
-1.46714174747467041 7.45056343078613281 -1.41401314735412598
-0.363950490951538086 5.3979644775390625 -1.34127187728881836
0.929429411888122559 4.69431304931640625 -1.01215791702270508
-1.06842076778411865 5.40877008438110352 -1.485595703125
2.32564473152160645 4.71385669708251953 -0.948927760124206543
-0.259762227535247803 1.20384633541107178 -1.75146663188934326
0.406513512134552002 7.04417228698730469 -1.35418391227722168
2.07127594947814941 7.04156970977783203 0.560613393783569336
-0.493896424770355225 1.62734460830688477 -1.67772328853607178
-0.733763396739959717 5.56872129440307617 -1.36709856986999512
-0.707344770431518555 5.88509845733642578 -0.876904189586639404
1.1655048131942749 7.38935565948486328 -0.502879679203033447
-1.20285069942474365 7.82851076126098633 -1.41827094554901123
-0.500016927719116211 1.75925350189208984 -1.33549070358276367
-0.377630949020385742 1.80597305297851562 -1.53647446632385254
0.70566028356552124 4.18459033966064453 -1.31578481197357178
1.84141278266906738 3.0947268009185791 -1.5691988468170166
-0.707044780254364014 2.37753438949584961 -1.42271852493286133
1.51694929599761963 7.01195049285888672 -1.13645792007446289
0.219070136547088623 3.62591028213500977 -0.880242645740509033
1.4000701904296875 6.985076904296875 -0.96338963508605957
0.607146084308624268 2.35111093521118164 -1.23367142677307129
1.56874716281890869 4.53015899658203125 -1.23464751243591309
-0.461273849010467529 1.94606947898864746 -1.05028188228607178
-1.29458391666412354 7.46352958679199219 -1.53130698204040527
-1.60598337650299072 5.57369184494018555 -0.665182352066040039
1.05534279346466064 3.23453760147094727 -1.55218172073364258
0.892576754093170166 2.7575380802154541 -1.04843032360076904
-1.38726902008056641 3.0508873462677002 -1.7141110897064209
-0.514259278774261475 4.6083526611328125 -1.29494357109069824
1.26354622840881348 2.03803133964538574 -1.68111932277679443
-0.00206282734870910645 1.30755114555358887 -1.25734364986419678
-1.80831265449523926 5.56610536575317383 -0.541452944278717041
2.09839916229248047 6.83316612243652344 -0.294387876987457275
-0.403934836387634277 5.41825628280639648 -1.01273131370544434
1.49457895755767822 4.08826637268066406 -1.11452090740203857
-2.23662519454956055 4.45387554168701172 -1.39053916931152344
0.670970320701599121 1.03971481323242188 -1.20104420185089111
0.370453149080276489 1.30300450325012207 -1.57774853706359863
0.592879295349121094 3.25576972961425781 -1.66762888431549072
0.311269134283065796 2.961273193359375 -1.42191553115844727
1.79439377784729004 6.66962814331054688 -1.46409082412719727
-0.34459388256072998 3.40837335586547852 -1.38456201553344727
-1.36256611347198486 3.85588383674621582 -1.20640337467193604
-0.110228419303894043 2.86088800430297852 -0.969255685806274414
1.15327930450439453 1.83503782749176025 -1.74756479263305664
0.131772592663764954 3.20875167846679688 -1.18354535102844238
-3.33860254287719727 7.49319362640380859 -0.923763513565063477
-1.37297165393829346 1.82652401924133301 -1.43544483184814453
1.27692961692810059 3.31196188926696777 -1.02661633491516113
-0.821609318256378174 5.56643486022949219 -0.772336602210998535
2.84692645072937012 6.61547374725341797 -1.24748635292053223
0.269474804401397705 0.922027111053466797 -1.40522027015686035
0.00269540399312973022 4.65428686141967773 -0.878329873085021973
0.391333311796188354 1.54661011695861816 -1.306693434715271
2.23743605613708496 6.61463022232055664 -1.32297873497009277
0.890689432621002197 2.05561637878417969 -1.65792274475097656
1.25431180000305176 2.18933820724487305 -1.51529896259307861
0.224068135023117065 2.51758337020874023 -1.5000302791595459
2.45295834541320801 6.74704933166503906 -0.862908661365509033
2.86785244941711426 5.66942548751831055 -0.895591676235198975
-0.0320327617228031158 3.49668598175048828 -1.40901064872741699
0.311100363731384277 3.38154911994934082 -1.59459578990936279
-2.42613506317138672 5.39872169494628906 -1.03555512428283691
-1.28138482570648193 1.78091752529144287 -1.49689638614654541
0.391690731048583984 2.20561599731445312 -1.13709115982055664
-0.670899093151092529 2.41371536254882812 -1.48432660102844238
-1.92572474479675293 5.64653873443603516 -0.764429688453674316
1.6703190803527832 3.23592925071716309 -1.46823620796203613
0.592283546924591064 3.35833120346069336 -1.26240968704223633
-2.56079483032226562 4.50477123260498047 -0.656687796115875244
0.122913524508476257 1.14754438400268555 -1.83589339256286621
-1.78182315826416016 2.95953273773193359 -1.8155214786529541
1.35770630836486816 3.66053199768066406 -1.20752882957458496
1.4209599494934082 2.73069095611572266 -1.60284256935119629
0.703636646270751953 3.77422881126403809 -1.08584833145141602
-3.58970856666564941 7.84645938873291016 -0.836874485015869141
0.554591178894042969 1.21728849411010742 -0.987110495567321777
1.96878671646118164 3.99012207984924316 -1.30156564712524414
0.110224068164825439 2.3020164966583252 -1.04048991203308105
1.36705303192138672 2.91506648063659668 -1.11936640739440918
0.572448194026947021 3.01699447631835938 -1.62034785747528076
-3.2239677906036377 7.59824419021606445 -0.616725921630859375
1.09054553508758545 4.62089681625366211 -1.42469680309295654
-1.01894915103912354 1.31968021392822266 -1.66328668594360352
-0.783909201622009277 2.37601733207702637 -1.64465177059173584
-3.87775826454162598 7.831939697265625 -0.82867199182510376
3.50353527069091797 6.49199104309082031 -0.102181226015090942
0.994326770305633545 2.32296991348266602 -1.76006698608398438
-0.856128990650177002 1.40887117385864258 -1.65088653564453125
0.759331583976745605 7.24817037582397461 0.294420361518859863
0.0508260726928710938 2.10925912857055664 -1.088478684425354
-3.53097414970397949 7.50081157684326172 -0.649603724479675293
-0.714833617210388184 2.22808146476745605 -1.68039345741271973
3.78544425964355469 6.43548202514648438 -0.398361891508102417
-0.818753898143768311 5.53358602523803711 -1.05621778964996338
1.20612561702728271 7.04846477508544922 -0.742903947830200195
-1.06342232227325439 2.68856692314147949 -1.76156139373779297
-1.35290944576263428 1.82309842109680176 -1.58459103107452393
-1.58331608772277832 5.80315589904785156 -0.934335470199584961
0.593837440013885498 4.08358573913574219 -1.14868307113647461
1.54777669906616211 4.04504489898681641 -0.867911040782928467
0.922089993953704834 5.23162317276000977 -0.73261868953704834
1.56051003932952881 2.92889237403869629 -1.85825777053833008
-0.999116897583007812 2.21455478668212891 -1.55210185050964355
-1.53895151615142822 4.25938224792480469 -1.23015296459197998
2.56738948822021484 4.8614201545715332 -1.13866209983825684
0.0166143178939819336 3.21809816360473633 -1.49547243118286133
-0.6254691481590271 1.6767432689666748 -1.59627890586853027
-0.602633416652679443 3.43260407447814941 -1.51798522472381592
-2.24048566818237305 5.11381435394287109 -0.773586273193359375
2.85403895378112793 6.69017791748046875 -0.660867989063262939
3.37581348419189453 5.32439041137695312 -0.302807927131652832
1.5778886079788208 6.88090276718139648 -0.295921891927719116
-0.152334839105606079 3.54217791557312012 -1.31468868255615234
-1.09438753128051758 5.69357967376708984 -0.662821292877197266
1.60202705860137939 6.85636425018310547 -1.07678365707397461
-0.0932871922850608826 1.29358220100402832 -0.719439566135406494
1.37270021438598633 2.36394453048706055 -1.18260955810546875
1.16266250610351562 1.57471108436584473 -1.78891420364379883
0.320703864097595215 3.87299895286560059 -1.19478511810302734
-0.378419190645217896 1.11270737648010254 -1.73377847671508789
-1.37770140171051025 3.03074884414672852 -2.00094366073608398
-1.09089481830596924 3.43719053268432617 -1.61086523532867432
-0.0656844079494476318 0.798792004585266113 -1.08256518840789795
0.0889348834753036499 3.19140625 -1.15380299091339111
0.432662606239318848 3.26003408432006836 -1.39175057411193848
0.484327495098114014 4.4811701774597168 -0.839609980583190918
1.05106258392333984 2.89084553718566895 -1.00979864597320557
3.34773969650268555 6.55834007263183594 -1.04058301448822021
-2.12358617782592773 5.99166393280029297 -0.378141462802886963
-2.26094985008239746 5.13057518005371094 -1.27461695671081543
-0.251416712999343872 1.33747172355651855 -0.769529283046722412
-2.95263361930847168 7.68769025802612305 0.281186342239379883
0.354989469051361084 1.20288538932800293 -1.29492700099945068
0.889170348644256592 2.79142570495605469 -1.57683825492858887
-0.529633402824401855 1.64246392250061035 -0.928622841835021973
-2.50277018547058105 5.14247703552246094 -0.841026544570922852
0.830647885799407959 4.16656303405761719 -1.19958066940307617
-0.882166266441345215 2.12503147125244141 -1.72508382797241211
0.194026261568069458 4.35824441909790039 -0.721046149730682373
-1.04658794403076172 2.59115767478942871 -1.81759381294250488
1.9267728328704834 2.77027463912963867 -0.825716972351074219
-1.7380983829498291 2.81555724143981934 -1.74894452095031738
-1.94228541851043701 4.51867771148681641 -1.31691241264343262
-1.05269908905029297 1.53391444683074951 -1.5093986988067627
-2.59419393539428711 5.16182470321655273 -0.960322678089141846
1.32163369655609131 2.44778871536254883 -1.83086144924163818
-1.16317617893218994 3.25874948501586914 -1.54149580001831055
-1.21130573749542236 2.7536160945892334 -1.58861422538757324
-0.313049077987670898 4.77056312561035156 -1.3482590913772583
3.54401874542236328 6.38146018981933594 -0.505402505397796631
1.0795968770980835 3.00405192375183105 -0.909777998924255371
0.687519729137420654 2.30244302749633789 -1.78178644180297852
1.91643774509429932 3.76254606246948242 -0.931809961795806885
-1.61589610576629639 3.31878042221069336 -1.79833626747131348
0.22226637601852417 2.75023078918457031 -1.46744632720947266
0.763461589813232422 7.05333137512207031 -0.266166716814041138
0.17211972177028656 3.22845816612243652 -1.34989082813262939
1.94655120372772217 6.92018604278564453 0.131598562002182007
0.691247165203094482 1.91687297821044922 -1.29024553298950195
2.96544694900512695 5.44240093231201172 -0.608336031436920166
0.797237396240234375 7.00103092193603516 -0.199204117059707642
0.552059173583984375 7.52146148681640625 0.317907661199569702
-0.199817448854446411 2.24077081680297852 -1.07019257545471191
-1.5369645357131958 2.22122454643249512 -1.89794492721557617
-1.47886943817138672 4.85563421249389648 -1.37172150611877441
-0.614844441413879395 3.2591102123260498 -1.37919473648071289
-1.67176485061645508 2.97338557243347168 -1.74941146373748779
0.530509710311889648 2.59224176406860352 -1.20341038703918457
-0.633538961410522461 2.20681977272033691 -1.60360610485076904
0.335370957851409912 1.41491580009460449 -1.20201313495635986
1.90658700466156006 2.50908994674682617 -1.72384750843048096
0.521036148071289062 4.10774517059326172 -0.690552175045013428
1.16571557521820068 7.07038640975952148 -0.840974867343902588
0.750917255878448486 4.34151268005371094 -1.31553459167480469
-1.21846139430999756 1.65719962120056152 -1.66718077659606934
1.09383487701416016 5.52316904067993164 -0.838103532791137695
0.0364594757556915283 1.17397212982177734 -1.71640312671661377
1.44856464862823486 2.37144041061401367 -1.24582016468048096
1.18053328990936279 2.6413123607635498 -1.63975286483764648
1.49234521389007568 7.14311647415161133 -0.542605042457580566
-0.00803941488265991211 3.75187182426452637 -0.579234540462493896
-0.0816173255443572998 1.06988298892974854 -1.1945037841796875
-0.414861679077148438 5.15793895721435547 -1.29289627075195312
2.81565666198730469 6.83063030242919922 -0.479862898588180542
0.770912349224090576 4.30962038040161133 -0.930487513542175293
-2.51417350769042969 5.28740024566650391 -1.09263849258422852
0.293042898178100586 3.61439323425292969 -1.51471912860870361
1.19043779373168945 2.44020962715148926 -1.29884052276611328
-0.477643787860870361 3.14510917663574219 -1.03905391693115234
-0.304903924465179443 1.99891293048858643 -1.17640066146850586
-0.137383908033370972 2.41727423667907715 -1.11787617206573486
0.708633780479431152 1.29404902458190918 -1.38555049896240234
0.870397031307220459 2.09387516975402832 -1.37034833431243896
-0.176829591393470764 1.55280876159667969 -1.59398794174194336
-2.00789308547973633 5.11518430709838867 -1.00586450099945068
-2.33028125762939453 5.23789644241333008 -1.02387893199920654
-1.11964404582977295 3.70124554634094238 -1.70494341850280762
-1.15397334098815918 1.71556079387664795 -1.61290431022644043
2.16861748695373535 3.18240475654602051 -1.16462576389312744
1.10678315162658691 7.2771296501159668 0.342239975929260254
-3.16595077514648438 7.82301712036132812 -0.202226847410202026
3.61992049217224121 6.50390100479125977 0.00951373577117919922
0.218766927719116211 0.682210206985473633 -1.15336835384368896
-0.790212273597717285 5.00191926956176758 -1.55149006843566895
-3.18525910377502441 7.57553482055664062 -0.22172139585018158
0.678712904453277588 2.13936734199523926 -1.26835250854492188
-1.84159135818481445 5.81045818328857422 -1.09988832473754883
0.770320892333984375 2.0874476432800293 -1.51969695091247559
2.02702760696411133 6.75657987594604492 -1.20747971534729004
1.03992700576782227 2.98352313041687012 -1.55316519737243652
1.40417873859405518 4.34238433837890625 -0.927291393280029297
1.19770944118499756 7.00312089920043945 0.175420910120010376
1.96097981929779053 3.52155780792236328 -1.22747981548309326
-0.127968057990074158 5.11876678466796875 -0.986297845840454102
2.02385663986206055 6.69911432266235352 -1.08344268798828125
-0.0401609539985656738 3.5411989688873291 -1.17699909210205078
1.50799322128295898 6.86982917785644531 -1.03217101097106934
0.256104439496994019 1.09689891338348389 -0.792750775814056396
-1.01749742031097412 2.95036506652832031 -1.57877182960510254
0.498152017593383789 1.67931985855102539 -1.19003534317016602
2.30244612693786621 4.61809062957763672 -1.15449380874633789
3.22641921043395996 6.43868398666381836 -1.19099187850952148
1.28998112678527832 7.08087253570556641 -0.220525681972503662
0.283241957426071167 2.34968090057373047 -1.10098433494567871
-2.03087329864501953 7.53682136535644531 -0.333753794431686401
0.368530243635177612 1.88475179672241211 -1.15678298473358154
0.172157242894172668 1.38907706737518311 -1.14076566696166992
0.577230274677276611 7.27232217788696289 0.268076479434967041
-1.64401435852050781 7.40610790252685547 -1.33946621417999268
-0.997914791107177734 2.97864937782287598 -1.92676544189453125
2.2693028450012207 6.70820379257202148 -1.22889208793640137
1.16329145431518555 3.45170283317565918 -1.64664375782012939
-2.31959819793701172 5.37090635299682617 -0.540461838245391846
-0.477821797132492065 3.04344749450683594 -1.34444332122802734
-0.476257920265197754 4.44518566131591797 -1.15167355537414551
1.17847979068756104 2.79098105430603027 -1.6239161491394043
1.38920426368713379 1.37672281265258789 -1.79429125785827637
-0.293877184391021729 1.44944894313812256 -1.67971217632293701
0.145499482750892639 3.66429543495178223 -1.58133518695831299
-0.260209083557128906 1.81180131435394287 -1.16894400119781494
1.02259540557861328 2.14394021034240723 -1.82061123847961426
1.15203201770782471 7.04873991012573242 0.144059658050537109
2.24954533576965332 6.71873760223388672 -0.302549570798873901
0.601008951663970947 1.13709795475006104 -1.76002156734466553
-1.99943351745605469 7.85895442962646484 -0.0305381119251251221
-3.20539093017578125 7.55676078796386719 0.112883195281028748
1.24613666534423828 2.55328845977783203 -1.04004430770874023
0.356096982955932617 3.36956119537353516 -1.45586597919464111
1.03489518165588379 2.41053271293640137 -1.29728245735168457
-1.26564359664916992 3.96443581581115723 -0.922817707061767578
2.7695155143737793 6.54380893707275391 -1.2294994592666626
-1.868865966796875 5.71350288391113281 -0.780309915542602539
-2.43410658836364746 4.53033065795898438 -1.03751015663146973
-0.526474654674530029 5.49233913421630859 -0.985747337341308594
0.410446405410766602 6.90735054016113281 -1.19343996047973633
1.35583353042602539 3.65825080871582031 -1.5793602466583252
-0.0363797694444656372 3.01657962799072266 -1.26044154167175293
0.969678759574890137 4.62859773635864258 -1.02751326560974121
-0.174666464328765869 3.32360458374023438 -1.56495082378387451
0.0476627349853515625 1.35551321506500244 -1.15760564804077148
-1.1788637638092041 7.57636260986328125 -0.0518389344215393066
-0.119211636483669281 2.45945167541503906 -1.18823766708374023
-1.6864926815032959 5.99877738952636719 -1.13130855560302734
0.322028219699859619 4.02733898162841797 -0.658162355422973633
0.634382426738739014 0.899427890777587891 -1.07221269607543945
-0.959975481033325195 5.78872776031494141 -0.891419649124145508
-3.58997917175292969 7.69483423233032227 -0.516540646553039551
0.113475769758224487 1.27608180046081543 -1.76145505905151367
0.0933658331632614136 3.86181354522705078 -0.681915760040283203
0.117342770099639893 2.38535976409912109 -1.0399165153503418
0.0120563805103302002 1.31590175628662109 -0.86659616231918335
1.31555604934692383 7.0119624137878418 -0.0960389226675033569
3.25454020500183105 6.53303241729736328 -0.502831578254699707
-0.714230179786682129 3.65122199058532715 -0.984634160995483398
0.451437711715698242 3.26756048202514648 -1.33825111389160156
-1.30557727813720703 2.76017022132873535 -1.65670394897460938
1.25640058517456055 1.6765134334564209 -1.77448451519012451
1.59650325775146484 2.93742489814758301 -1.73803162574768066
0.426280170679092407 2.48318314552307129 -1.2460092306137085
-0.174804076552391052 1.26327896118164062 -1.67731857299804688
-0.196161642670631409 1.54344367980957031 -1.78323554992675781
-1.85800778865814209 2.83399462699890137 -1.86430811882019043
3.13582372665405273 6.74987936019897461 -0.144550204277038574
0.718219220638275146 7.13028144836425781 0.370429486036300659
0.544916331768035889 3.26179933547973633 -1.70464074611663818
0.0397033542394638062 4.41305780410766602 -0.914074897766113281
0.205867990851402283 3.7306208610534668 -1.27731943130493164
0.84176337718963623 2.04092860221862793 -1.85962378978729248
-0.631589531898498535 5.90037298202514648 -1.08375275135040283
1.4737250804901123 7.0519251823425293 -0.0213011950254440308
0.334816455841064453 7.41990947723388672 -1.0759350061416626
0.769099652767181396 2.90877079963684082 -1.62714087963104248
1.32094824314117432 2.52696466445922852 -1.36615073680877686
1.73844623565673828 2.77087783813476562 -1.62369537353515625
0.315235525369644165 0.831408560276031494 -1.1303095817565918
0.439225196838378906 1.94316864013671875 -1.14631438255310059
-2.53468561172485352 5.1977543830871582 -0.52241814136505127
0.317193150520324707 2.85120320320129395 -1.61299657821655273
1.12593555450439453 2.81686973571777344 -1.15659952163696289
1.08451437950134277 2.66882228851318359 -1.1453852653503418
0.963460147380828857 2.99465751647949219 -0.677582383155822754
0.329930812120437622 0.970495462417602539 -1.22503423690795898
3.92747092247009277 6.19589853286743164 -1.19415712356567383
-1.36913073062896729 2.0041348934173584 -1.53445982933044434
1.96876692771911621 2.88365721702575684 -0.883477210998535156
3.47047519683837891 6.25847339630126953 -0.616791069507598877
0.256097614765167236 3.8907170295715332 -1.01887619495391846
-1.5205007791519165 6.02404975891113281 -1.124580979347229
-1.121787428855896 1.54280495643615723 -1.47483193874359131
0.716322839260101318 1.60290765762329102 -1.25634491443634033
-2.82623696327209473 5.19602251052856445 -1.58115816116333008
1.10842597484588623 3.1594078540802002 -0.894746959209442139
-0.776845157146453857 2.79591965675354004 -1.71431469917297363
1.20753574371337891 7.18925857543945312 0.373456060886383057
2.01296234130859375 4.29311323165893555 -1.13856565952301025
0.950628101825714111 6.83453655242919922 -0.219562187790870667
2.02678036689758301 2.93951940536499023 -1.21725833415985107
-3.23264980316162109 7.59933567047119141 -0.262666225433349609
-0.313106358051300049 3.10510897636413574 -1.25861942768096924
-0.203487485647201538 5.60252666473388672 -1.10744154453277588
0.856692671775817871 2.25412201881408691 -1.11637485027313232
-1.03953886032104492 1.63009226322174072 -1.50706803798675537
1.57767128944396973 6.89205169677734375 -0.360878705978393555
1.24569547176361084 3.15561175346374512 -1.60729146003723145
2.19820737838745117 6.50643205642700195 -1.20521903038024902
0.904110312461853027 1.098610520362854 -1.14473295211791992
-1.41768205165863037 4.20675086975097656 -1.04674887657165527
-1.29263556003570557 3.68980169296264648 -1.02976524829864502
1.93075203895568848 6.7716064453125 -1.30184125900268555
1.45082449913024902 1.65323972702026367 -1.84441912174224854
-0.991225719451904297 1.53505873680114746 -1.62696290016174316
0.36810225248336792 2.09465956687927246 -1.15889942646026611
3.86702585220336914 6.54025506973266602 -0.340881168842315674
3.10971188545227051 6.50359058380126953 -1.02087092399597168
-1.34408807754516602 3.6751863956451416 -1.59234452247619629
1.61895012855529785 6.97787666320800781 -0.533204853534698486
0.541676461696624756 2.06511950492858887 -1.18851566314697266
0.224305659532546997 1.1815955638885498 -1.42287027835845947
-1.06076908111572266 2.04935765266418457 -1.64306855201721191
1.24176871776580811 3.39021849632263184 -1.34444069862365723
1.92059445381164551 4.00601863861083984 -1.08197569847106934
-0.494559586048126221 1.89824259281158447 -1.46432292461395264
0.410369008779525757 3.43250846862792969 -1.14293956756591797
0.184055954217910767 1.3872908353805542 -1.6377103328704834
3.84971332550048828 6.27653598785400391 -1.28252613544464111
-2.74248552322387695 7.61025476455688477 -0.776785492897033691
-2.60024404525756836 5.14813470840454102 -0.622561872005462646
-2.07318353652954102 4.50328826904296875 -1.32119762897491455
1.33216595649719238 6.82073736190795898 -1.1706085205078125
-2.66485047340393066 5.19191074371337891 -0.879473507404327393
-0.216769874095916748 7.54870176315307617 -0.641210496425628662
-3.0499882698059082 7.69066858291625977 0.204775884747505188
-0.446764528751373291 7.35529899597167969 -1.04355239868164062
-0.230005174875259399 1.26777505874633789 -1.71087241172790527
-0.407693326473236084 1.9952399730682373 -1.25578176975250244
-2.53862500190734863 5.34739875793457031 -0.801577508449554443
0.733080506324768066 2.2548668384552002 -1.17971265316009521
-0.0476649552583694458 2.29931807518005371 -1.15796947479248047
1.43311810493469238 3.67268228530883789 -1.15242338180541992
1.1571810245513916 4.18122625350952148 -1.40299654006958008
-1.44917547702789307 3.4485173225402832 -1.7683417797088623
0.884684920310974121 4.01550865173339844 -1.17816376686096191
2.4759676456451416 6.87390613555908203 -1.03372836112976074
-0.37794339656829834 3.43721508979797363 -1.10380303859710693
-1.92143416404724121 5.84181594848632812 -0.684829354286193848
-2.84159159660339355 4.9757990837097168 -0.978359341621398926
-3.6426544189453125 7.91777420043945312 -0.874358892440795898
-0.501257121562957764 2.15338563919067383 -1.0473785400390625
1.51330006122589111 2.83902597427368164 -1.27730154991149902
-0.916088223457336426 4.09421014785766602 -1.80150461196899414
1.75285983085632324 6.92840671539306641 0.191670477390289307
1.25955307483673096 6.97259998321533203 -1.00538885593414307
-0.87347257137298584 2.68616509437561035 -1.56134521961212158
-0.821983516216278076 2.88843441009521484 -1.80443310737609863
-1.24395668506622314 4.262451171875 -1.47398817539215088
0.131161212921142578 2.51628875732421875 -1.28516292572021484
1.3507307767868042 2.2943730354309082 -1.65676403045654297
0.140648007392883301 3.10242557525634766 -1.42698383331298828
-1.02145099639892578 2.83820557594299316 -1.86315155029296875
-0.434503436088562012 1.22136116027832031 -1.57642436027526855
-1.14372658729553223 7.57286500930786133 -0.586615204811096191
-2.22582054138183594 5.227203369140625 -0.608510017395019531
2.79643821716308594 5.84003257751464844 -0.791510343551635742
1.62866866588592529 2.64536094665527344 -1.30431914329528809
0.998921632766723633 2.30917072296142578 -1.61037921905517578
-2.78400659561157227 5.14024496078491211 -0.622520267963409424
0.630535542964935303 3.61422491073608398 -0.980493247509002686
-0.322667241096496582 1.51763439178466797 -1.64625978469848633
-2.14928913116455078 4.47271156311035156 -1.45068752765655518
-2.64596271514892578 4.52607297897338867 -0.670029997825622559
0.757861137390136719 3.45936465263366699 -1.34859395027160645
0.362972140312194824 0.79156041145324707 -1.04315304756164551
-2.1438138484954834 5.14684200286865234 -1.14905345439910889
1.31400656700134277 3.93123078346252441 -1.11585116386413574
-1.19037508964538574 1.73456752300262451 -1.63484907150268555
-2.66675472259521484 4.52587699890136719 -1.11021232604980469
-0.288319408893585205 7.79207801818847656 0.339376240968704224
0.0719502642750740051 3.75466012954711914 -1.3310246467590332
-1.59637272357940674 4.1726679801940918 -1.06981551647186279
0.15553659200668335 3.96745491027832031 -0.726909339427947998
-2.29849147796630859 4.34893608093261719 -1.06851649284362793
1.53923749923706055 4.35921001434326172 -1.0500645637512207
0.477894961833953857 1.37761330604553223 -1.37265515327453613
0.758076012134552002 4.25358057022094727 -1.48756802082061768
-0.821904957294464111 5.60131549835205078 -0.834856569766998291
3.25538206100463867 6.42858505249023438 -0.487643778324127197
0.712828636169433594 3.26203417778015137 -1.66542315483093262
0.517302930355072021 4.01225662231445312 -0.837934494018554688
-0.770072519779205322 2.01409578323364258 -1.73044610023498535
-0.46522948145866394 5.66443777084350586 -1.26675236225128174
0.0464981682598590851 1.39998078346252441 -0.827750802040100098
-0.669523358345031738 1.50820839405059814 -1.51946842670440674
1.56951701641082764 6.93957757949829102 -0.333970367908477783
0.38934558629989624 4.06766176223754883 -0.901234984397888184
-1.5549771785736084 7.41531467437744141 -1.19847297668457031
1.05550849437713623 7.00529861450195312 -0.500172257423400879
0.95321279764175415 4.89678096771240234 -0.912820398807525635
0.703131437301635742 7.11250877380371094 -0.0170248448848724365
-3.03751397132873535 5.0049128532409668 -1.48080670833587646
1.21976399421691895 7.12875652313232422 -1.18891513347625732
1.31036090850830078 7.28736495971679688 0.221605420112609863
1.74824070930480957 2.1674492359161377 -1.73955392837524414
0.753291189670562744 2.38223409652709961 -1.7355189323425293
-0.254300951957702637 1.29024291038513184 -1.45193374156951904
-0.588968336582183838 2.22490310668945312 -1.13990640640258789
1.80194330215454102 3.2356264591217041 -1.0328906774520874
0.15845806896686554 2.97638225555419922 -1.30122113227844238
0.173110634088516235 3.67869019508361816 -0.69313424825668335
1.13237059116363525 2.39816689491271973 -1.15130209922790527
0.83958733081817627 4.51238346099853516 -1.04344034194946289
-1.1454932689666748 7.17938470840454102 -1.1142648458480835
-0.231151700019836426 1.78084278106689453 -1.13186776638031006
1.44798791408538818 7.13580989837646484 -0.480502277612686157
-1.56783187389373779 3.23091459274291992 -1.73358297348022461
0.933253705501556396 2.13721418380737305 -1.46241044998168945
-0.996728956699371338 1.76265048980712891 -1.46358072757720947
1.35302102565765381 7.18712043762207031 -0.872566461563110352
-0.773566365242004395 3.87080764770507812 -1.15872335433959961
-3.55550909042358398 7.69726848602294922 -0.930932760238647461
-0.977979421615600586 2.51152563095092773 -1.65825331211090088
0.660572409629821777 1.37280988693237305 -1.04247546195983887
-0.105015136301517487 1.33766484260559082 -0.880134940147399902
-0.206504166126251221 1.30660867691040039 -1.77067446708679199
-1.14132702350616455 3.46763324737548828 -1.65852451324462891
0.444319397211074829 3.47640872001647949 -1.63970088958740234
0.143550798296928406 1.25285530090332031 -1.52001106739044189
-2.16227436065673828 5.21503591537475586 -0.746140062808990479
1.11616611480712891 1.9199751615524292 -1.72185516357421875
0.110685862600803375 2.07691383361816406 -1.14158821105957031
0.180803656578063965 2.37998437881469727 -1.82261323928833008
-3.00899720191955566 7.86396265029907227 -0.224729806184768677
1.54678738117218018 6.70264482498168945 -1.20097625255584717
0.971257269382476807 6.99903106689453125 -0.0446165800094604492
-0.333304256200790405 1.8963545560836792 -1.63273835182189941
1.30327892303466797 4.47539854049682617 -1.26140177249908447
0.475255340337753296 7.10746574401855469 -1.09068155288696289
2.17274045944213867 6.68534278869628906 -1.33156514167785645
-2.35345792770385742 5.27448558807373047 -0.944296836853027344
0.837487697601318359 6.90309429168701172 -1.24013650417327881
1.51040554046630859 7.49808883666992188 0.428664922714233398
1.36042475700378418 1.73414671421051025 -1.75859999656677246
0.202793672680854797 0.932839274406433105 -0.978650331497192383
1.20224440097808838 3.06915426254272461 -1.51566243171691895
2.25488519668579102 6.74812507629394531 -1.40924763679504395
1.80257999897003174 4.58109092712402344 -1.18811869621276855
-0.520267188549041748 3.25121307373046875 -1.21168422698974609
0.0899400487542152405 3.22930788993835449 -1.2314755916595459
2.35576534271240234 6.83467864990234375 -1.2262420654296875
0.318667829036712646 3.76060271263122559 -1.38412320613861084
1.85883951187133789 2.72956442832946777 -1.51462054252624512
-0.298741519451141357 1.49935352802276611 -1.29863607883453369
-0.764460086822509766 2.332061767578125 -1.53465723991394043
1.56107759475708008 4.07662820816040039 -1.05271601676940918
-0.0787133127450942993 3.38434600830078125 -1.44966697692871094
0.315903842449188232 2.10887694358825684 -1.04386460781097412
-0.478907227516174316 1.55549001693725586 -1.58694815635681152
0.225095748901367188 1.17769074440002441 -1.36738228797912598
-0.118615791201591492 3.06747770309448242 -1.22774505615234375
-1.24014103412628174 2.79196739196777344 -1.65889501571655273
0.663051605224609375 3.90723490715026855 -1.15227365493774414
0.211824461817741394 1.60750102996826172 -1.12502837181091309
-2.61403369903564453 5.11453151702880859 -0.807888388633728027
1.07949614524841309 2.46885204315185547 -1.46168923377990723
-1.08452773094177246 1.55346179008483887 -1.6093524694442749
0.135205954313278198 4.49128961563110352 -0.737294852733612061
-3.61323189735412598 7.57751703262329102 -1.0476691722869873
0.456473648548126221 2.59744501113891602 -1.30977940559387207
-1.13228225708007812 3.79903268814086914 -1.74933338165283203
0.637245714664459229 1.68033194541931152 -0.912684202194213867
1.31152880191802979 3.24810171127319336 -1.17885565757751465
0.753844797611236572 4.44142627716064453 -1.3937002420425415
0.641845166683197021 3.35337185859680176 -1.43566393852233887
-3.15740585327148438 7.91526269912719727 -0.241559907793998718
-1.58574676513671875 1.69320976734161377 -1.59758436679840088
0.360720813274383545 2.37236523628234863 -1.8350142240524292
1.04394745826721191 2.51558351516723633 -1.52456986904144287
2.61081933975219727 6.71398496627807617 -1.05791318416595459
-0.248868748545646667 3.16713190078735352 -1.08049535751342773
1.05230629444122314 4.64726877212524414 -1.26581108570098877
-0.642668664455413818 7.09351253509521484 -1.005454421043396
0.0718140155076980591 0.743835568428039551 -1.03198122978210449
1.09610593318939209 2.02796339988708496 -1.70997405052185059
-2.43654036521911621 5.34180927276611328 -0.75863879919052124
-4.02425336837768555 6.52086734771728516 -0.478781610727310181
1.09672677516937256 3.02853941917419434 -1.64419054985046387
1.68296170234680176 2.63335967063903809 -1.82768964767456055
1.82152962684631348 2.36503171920776367 -1.74403512477874756
-2.1694183349609375 4.4895930290222168 -1.31153309345245361
-0.855544447898864746 2.09328436851501465 -1.59350860118865967
1.9727180004119873 6.92368030548095703 -1.26501774787902832
-0.377285867929458618 5.52559900283813477 -0.996578812599182129
-0.628884792327880859 5.32108259201049805 -0.999064803123474121
-1.106345534324646 3.25763869285583496 -1.59216547012329102
-0.426401287317276001 3.08689069747924805 -1.39138269424438477
0.165549442172050476 3.86826777458190918 -1.05116391181945801
0.93482285737991333 6.98275470733642578 -0.693609237670898438
-0.00313919782638549805 2.43851494789123535 -0.91322171688079834
-0.15027385950088501 2.58848047256469727 -1.08680200576782227
1.92443263530731201 6.68428134918212891 -1.66521656513214111
-0.322520732879638672 5.26109981536865234 -1.0855565071105957
-1.06307327747344971 5.33087491989135742 -1.50369596481323242
1.88317620754241943 3.56229782104492188 -0.994642674922943115
1.19964265823364258 2.39964652061462402 -1.65156245231628418
3.74689674377441406 5.52512168884277344 0.0772636085748672485
3.06147646903991699 6.38176774978637695 -1.11959350109100342
0.872040629386901855 3.49791693687438965 -1.22444558143615723
-0.708380579948425293 5.85100126266479492 -0.936733722686767578
-0.505258679389953613 5.6942901611328125 -0.826617896556854248
-2.08768177032470703 4.57185077667236328 -1.43817973136901855
-0.414729773998260498 2.16778683662414551 -1.43743407726287842
-0.0282348692417144775 1.13826203346252441 -1.47053205966949463
-0.438509464263916016 2.28305435180664062 -1.16938376426696777
1.22531485557556152 3.01300644874572754 -1.12282085418701172
-0.415934562683105469 6.03364801406860352 -1.1416555643081665
1.45927441120147705 6.84833049774169922 -1.10170125961303711
-0.489564180374145508 1.99369168281555176 -1.03089332580566406
-2.94750356674194336 7.97692298889160156 0.0461016818881034851
2.73936700820922852 6.97724628448486328 -0.89295196533203125
-1.22052919864654541 1.78919816017150879 -1.61848533153533936
1.08601617813110352 2.98417234420776367 -1.19440090656280518
-0.609063088893890381 1.93566572666168213 -1.14537179470062256
-0.277026385068893433 3.43058443069458008 -1.10537314414978027
0.536774754524230957 1.31022500991821289 -1.22201716899871826
-1.67473495006561279 3.05976510047912598 -1.7877042293548584
2.2815251350402832 6.75965261459350586 -1.00470376014709473
-1.74396288394927979 5.70305538177490234 -0.631116151809692383
0.755098223686218262 6.94924163818359375 0.388407349586486816
-0.53790593147277832 2.3413841724395752 -1.53651118278503418
1.48327779769897461 3.1162407398223877 -1.54407083988189697
1.45422863960266113 7.17492055892944336 -0.296036958694458008
1.17722928524017334 2.3174283504486084 -1.66292762756347656
2.71190476417541504 6.74595069885253906 -1.05822384357452393
1.30057168006896973 2.80969452857971191 -1.57155013084411621
-1.32357645034790039 7.49203014373779297 -1.2433168888092041
0.146149516105651855 1.28321945667266846 -0.756791055202484131
0.310259759426116943 2.06891655921936035 -1.1954343318939209
0.0364676713943481445 5.73393630981445312 -0.909971535205841064
1.63251399993896484 2.61848568916320801 -1.73083055019378662
2.18163275718688965 6.8248443603515625 -0.921632051467895508
1.26106631755828857 2.46035456657409668 -1.31798529624938965
-3.53058815002441406 7.78893709182739258 -0.695797324180603027
1.16219246387481689 2.36838293075561523 -1.43475914001464844
-0.533690094947814941 1.99329209327697754 -1.2251744270324707
3.16562652587890625 6.69629621505737305 -0.363102972507476807
0.903701841831207275 6.99479055404663086 -0.457841068506240845
0.135276973247528076 2.27898740768432617 -1.84908127784729004
-1.88636147975921631 4.64107656478881836 -1.36843514442443848
1.93682289123535156 3.40057516098022461 -1.38802468776702881
-1.39278125762939453 3.09254026412963867 -1.69836103916168213
-1.46738088130950928 5.71017837524414062 -0.740767002105712891
1.98172235488891602 2.91190171241760254 -1.44695138931274414
-1.09673702716827393 3.08073902130126953 -1.96528160572052002
2.3992302417755127 4.79364299774169922 -1.17023241519927979
0.104945123195648193 2.05018424987792969 -1.12975692749023438
-0.0343156158924102783 3.32575392723083496 -1.18950045108795166
0.657905220985412598 0.992769718170166016 -1.28871309757232666
-0.619535923004150391 1.28776240348815918 -1.48092830181121826
-2.77162289619445801 5.10764694213867188 -0.801919281482696533
