ply
format ascii 1.0
element vertex 770
comment vertices
property float x
property float y
property float z
end_header
-1.32284331321716309 1.81217765808105469 -1.36396682262420654
0.657785415649414062 3.71525716781616211 -1.36268603801727295
-0.487414419651031494 1.90826320648193359 -1.41085517406463623
0.321836739778518677 0.971782326698303223 -0.72642219066619873
-0.514548957347869873 2.21402311325073242 -0.859979331493377686
1.68752813339233398 6.8763580322265625 -1.14148938655853271
0.714433014392852783 3.93649172782897949 -0.955967605113983154
1.79562914371490479 3.11209607124328613 -1.08841454982757568
-2.13564109802246094 4.8422245979309082 -1.25796496868133545
-1.04236793518066406 3.63210225105285645 -1.30585026741027832
1.26463806629180908 5.40107345581054688 -0.796428859233856201
0.140336841344833374 3.84381270408630371 -0.960348308086395264
3.30537295341491699 6.75414419174194336 -0.115767121315002441
1.24294638633728027 4.05622959136962891 -0.950398027896881104
-0.833624482154846191 2.97283244132995605 -1.13205873966217041
1.00783944129943848 7.22126245498657227 0.691921830177307129
2.05941009521484375 7.02196502685546875 0.183463141322135925
-0.832322359085083008 5.824737548828125 -0.860494673252105713
0.217919021844863892 3.42515945434570312 -1.37595462799072266
0.308003872632980347 4.77538871765136719 -0.623360991477966309
1.38569414615631104 7.27045869827270508 -0.5618743896484375
-1.65323865413665771 4.42411899566650391 -1.00343716144561768
1.16175305843353271 2.89824819564819336 -1.40406084060668945
2.46435904502868652 4.78664541244506836 -0.960321724414825439
0.73923790454864502 3.07594633102416992 -1.36057066917419434
-1.84521794319152832 5.06298303604125977 -1.06864285469055176
-3.07726144790649414 8.12523269653320312 -0.635042071342468262
0.379845291376113892 2.81209850311279297 -1.04601991176605225
-1.1032332181930542 7.66425180435180664 -0.906658172607421875
1.23267710208892822 3.02539396286010742 -0.835889220237731934
0.609076023101806641 4.21430063247680664 -0.652814686298370361
-0.908534348011016846 4.42915725708007812 -0.869101643562316895
3.26910161972045898 6.77715873718261719 -1.00283682346343994
1.0123744010925293 7.20274925231933594 -0.310643136501312256
1.57294023036956787 7.03984737396240234 0.484523415565490723
0.394215613603591919 3.40097427368164062 -1.07935774326324463
3.67996454238891602 6.58664321899414062 0.239583730697631836
-0.675022125244140625 2.18941998481750488 -1.38413548469543457
0.117869608104228973 1.27210032939910889 -0.699597299098968506
-3.52634978294372559 6.91136503219604492 -0.706469476222991943
0.00399689050391316414 5.17547416687011719 -0.596984207630157471
0.527467906475067139 1.37082493305206299 -1.0193789005279541
-1.04103767871856689 2.63854742050170898 -1.36051666736602783
0.41450423002243042 1.01890659332275391 -1.03949844837188721
-0.966538846492767334 5.36992788314819336 -0.999576568603515625
1.64301192760467529 7.17622041702270508 -0.677461862564086914
0.80962759256362915 2.78262782096862793 -1.15331947803497314
2.93596458435058594 6.91278791427612305 0.380340456962585449
3.05115222930908203 6.93582391738891602 -0.826696813106536865
1.27181768417358398 7.22806453704833984 0.231741175055503845
-2.66666197776794434 5.17331600189208984 -0.900618910789489746
1.59236049652099609 7.21893787384033203 -0.0641513094305992126
0.916792631149291992 1.55669593811035156 -1.15043652057647705
-1.43262195587158203 3.04134106636047363 -1.38492465019226074
0.838862061500549316 3.4871373176574707 -1.39531946182250977
-1.37918365001678467 4.60937690734863281 -1.30429458618164062
1.79154157638549805 2.92801189422607422 -1.44582688808441162
2.01956653594970703 6.90970468521118164 -0.79379117488861084
-0.234115645289421082 1.73910427093505859 -0.779355645179748535
3.23205208778381348 6.71442174911499023 0.167134582996368408
0.0529096163809299469 2.16425490379333496 -0.996696889400482178
-2.19794631004333496 7.8554844856262207 0.154681980609893799
-2.40364241600036621 5.38540792465209961 -0.572576761245727539
-0.422174930572509766 5.45871782302856445 -0.839782059192657471
0.962950944900512695 4.09990549087524414 -0.958632707595825195
2.34320855140686035 6.78040456771850586 -1.12440824508666992
-0.758513450622558594 1.66689229011535645 -1.41327738761901855
-0.171552076935768127 5.03181648254394531 -0.797892093658447266
1.19738292694091797 1.97772872447967529 -1.39784073829650879
1.46556210517883301 2.80695605278015137 -0.849360525608062744
1.32927525043487549 3.28668379783630371 -0.84191739559173584
0.201494127511978149 2.42839241027832031 -1.03347349166870117
-0.259412318468093872 2.08857035636901855 -1.4017486572265625
0.648737311363220215 2.67183995246887207 -1.37824881076812744
0.0773424208164215088 1.29029345512390137 -1.19399046897888184
1.28217935562133789 7.04682636260986328 -0.748405873775482178
-3.6345212459564209 7.85196304321289062 -0.516371011734008789
-4.1912684440612793 8.19597911834716797 -0.604646086692810059
0.828872561454772949 3.09558463096618652 -0.839227020740509033
1.3060300350189209 2.71203327178955078 -1.26547276973724365
1.03855025768280029 2.38779616355895996 -1.41115903854370117
-0.149413317441940308 3.34249162673950195 -0.982443511486053467
-1.60735094547271729 5.76680564880371094 -0.782584071159362793
2.2940220832824707 3.93568921089172363 -0.954171419143676758
1.2808079719543457 3.481231689453125 -1.36825299263000488
0.0116992238909006119 1.61277711391448975 -1.42384064197540283
-2.39968109130859375 5.010284423828125 -0.915835916996002197
-1.11520218849182129 1.98948526382446289 -1.35456001758575439
0.400811433792114258 3.15970206260681152 -1.39112722873687744
0.861062169075012207 1.30943846702575684 -0.930869221687316895
-0.00116475916001945734 1.36066460609436035 -0.923459410667419434
-3.82860374450683594 7.99129104614257812 -0.826173603534698486
1.09872281551361084 2.52801275253295898 -0.854200184345245361
0.766053438186645508 2.67539548873901367 -0.845042884349822998
-3.35249185562133789 7.99712562561035156 -0.17353588342666626
2.12557268142700195 3.31360673904418945 -1.2541658878326416
0.907562792301177979 7.28088188171386719 0.439954638481140137
-2.02299737930297852 5.5393681526184082 -0.895238995552062988
2.81106424331665039 6.48339176177978516 -1.03893828392028809
0.399164855480194092 3.81057476997375488 -0.977044820785522461
0.612711608409881592 1.16956996917724609 -1.16111195087432861
-1.03485989570617676 1.73957943916320801 -1.38388466835021973
0.470900058746337891 1.94617378711700439 -1.03151309490203857
0.9741477370262146 7.24330759048461914 -0.0522784888744354248
0.032782580703496933 2.66323375701904297 -1.01483237743377686
-1.29771196842193604 3.88598442077636719 -1.07883775234222412
1.4233781099319458 7.23854351043701172 -0.304011732339859009
1.40456640720367432 3.02976346015930176 -1.23117268085479736
-1.11994874477386475 4.74905729293823242 -0.953126609325408936
-1.48055267333984375 3.32610583305358887 -1.30699658393859863
-0.251616716384887695 1.63958477973937988 -1.43470954895019531
-0.117191888391971588 3.68304133415222168 -0.73784250020980835
2.42444348335266113 4.54088830947875977 -0.909223854541778564
-0.452024906873703003 3.32514405250549316 -0.822873473167419434
1.15678203105926514 7.23905467987060547 -0.957556366920471191
-0.533117532730102539 5.80571365356445312 -0.596392512321472168
-1.04689311981201172 7.67597198486328125 0.198426470160484314
0.185973942279815674 4.55521297454833984 -0.672761023044586182
-3.41600656509399414 7.75403928756713867 -0.588303089141845703
2.70440125465393066 6.7414240837097168 -0.983574271202087402
0.218596309423446655 4.03076362609863281 -0.6243019700050354
-2.70171189308166504 5.29910802841186523 -1.26879584789276123
-2.86850357055664062 4.95193910598754883 -0.638763666152954102
1.44327247142791748 5.82793188095092773 -0.879535138607025146
-0.914830327033996582 2.94011569023132324 -1.3752593994140625
2.2598109245300293 6.85130691528320312 -0.80689704418182373
-0.300810575485229492 3.1228783130645752 -1.06390631198883057
1.93722689151763916 4.49749135971069336 -1.06886851787567139
0.202576801180839539 3.261138916015625 -1.01160895824432373
0.42516741156578064 3.63554525375366211 -1.35371935367584229
0.902257919311523438 2.89917612075805664 -1.41013729572296143
-2.19730162620544434 5.36890363693237305 -0.733013629913330078
-0.206883877515792847 2.63377618789672852 -0.980316400527954102
-0.0844989418983459473 7.36416196823120117 0.401320159435272217
-2.6367647647857666 4.53870439529418945 -1.03119850158691406
0.115263976156711578 4.96208381652832031 -0.60635066032409668
0.77288818359375 2.42854142189025879 -1.38213062286376953
1.30931329727172852 2.19023728370666504 -1.40691173076629639
1.58422553539276123 3.07247805595397949 -1.4103628396987915
-1.58076655864715576 4.42699337005615234 -0.772991299629211426
-0.741208076477050781 2.48309469223022461 -1.37492382526397705
0.551999032497406006 4.11319637298583984 -0.946023404598236084
-3.13596463203430176 8.04530525207519531 0.127479493618011475
-0.519361913204193115 3.56737351417541504 -1.13698577880859375
0.814741432666778564 3.69096851348876953 -0.996806144714355469
0.805642366409301758 7.10572481155395508 -0.972930848598480225
3.03301167488098145 5.67216920852661133 0.137786179780960083
-1.173087477684021 2.3395993709564209 -1.35653221607208252
0.467092007398605347 2.73566293716430664 -0.842354118824005127
-0.992452025413513184 3.4017951488494873 -1.35519790649414062
-2.54333353042602539 5.18898677825927734 -0.669403791427612305
0.376644223928451538 1.59694015979766846 -1.01037931442260742
1.48829936981201172 6.99181842803955078 -0.840132951736450195
-3.10581803321838379 8.10054111480712891 -0.30862891674041748
-0.403016000986099243 2.05834364891052246 -0.995288312435150146
-0.782770693302154541 4.23042917251586914 -0.918235659599304199
-1.93743455410003662 5.56293439865112305 -0.681236088275909424
0.922800064086914062 4.35742998123168945 -0.834260642528533936
-0.137842625379562378 1.71253037452697754 -1.23674070835113525
-3.87335300445556641 7.98466682434082031 -0.348061591386795044
-0.910376667976379395 1.26857221126556396 -0.738471925258636475
-3.35646677017211914 8.03088760375976562 0.359995901584625244
0.735423445701599121 1.45430374145507812 -1.0542149543762207
2.09615707397460938 7.14663934707641602 0.386215627193450928
1.14598321914672852 2.59808635711669922 -1.37808775901794434
-0.0100925881415605545 7.39499521255493164 -0.0860265493392944336
1.31826961040496826 4.24376583099365234 -0.803837001323699951
2.34317779541015625 4.19159936904907227 -1.12778544425964355
-0.206149175763130188 2.85497140884399414 -0.829127013683319092
-1.32109189033508301 2.76080751419067383 -1.37726926803588867
0.389919012784957886 4.17469644546508789 -0.61984550952911377
2.12807917594909668 3.08437943458557129 -1.05820178985595703
-0.341141223907470703 3.51762676239013672 -0.798298656940460205
-1.11376500129699707 3.9897458553314209 -0.773681282997131348
2.09992647171020508 2.8383781909942627 -1.18060851097106934
-1.25886142253875732 3.58042812347412109 -1.30742549896240234
-1.18474328517913818 5.41044187545776367 -0.919150292873382568
-3.41515684127807617 7.81217145919799805 -0.279199600219726562
-0.136326134204864502 1.58401370048522949 -0.904018640518188477
-0.514061629772186279 2.30472087860107422 -0.657836198806762695
-1.12904143333435059 3.13846492767333984 -1.35845959186553955
-1.10081243515014648 5.55897998809814453 -1.15420770645141602
-1.12172365188598633 7.43756103515625 -0.746120035648345947
-0.565186679363250732 2.29053902626037598 -1.06303834915161133
1.48440659046173096 2.63368582725524902 -1.42130184173583984
1.71338415145874023 4.31899356842041016 -0.827010512351989746
0.317149221897125244 3.60655021667480469 -0.976738095283508301
2.45938777923583984 4.90125083923339844 -1.14786398410797119
-2.00425291061401367 5.04573631286621094 -0.904274463653564453
3.94682002067565918 6.36621952056884766 -0.841061949729919434
-0.000321559404255822301 3.67723584175109863 -0.965636074542999268
2.55078434944152832 7.16598749160766602 -0.658004462718963623
-0.0894383788108825684 3.11088228225708008 -0.983842372894287109
1.22751271724700928 3.11250948905944824 -1.40858662128448486
2.19829654693603516 3.51972174644470215 -1.0574488639831543
-0.536172449588775635 3.54402351379394531 -0.630648791790008545
0.701060771942138672 2.38002347946166992 -0.975750863552093506
1.54185152053833008 3.31843233108520508 -0.845879793167114258
1.109657883644104 7.23810291290283203 0.371075540781021118
1.42113316059112549 7.1423792839050293 0.361008942127227783
0.808855116367340088 3.2761845588684082 -1.39005196094512939
2.87862801551818848 6.95475244522094727 0.175329461693763733
-0.422625184059143066 2.27615094184875488 -1.38189542293548584
2.54951810836791992 6.73653459548950195 -1.15086078643798828
-0.943319022655487061 2.12394380569458008 -1.36510050296783447
-0.639608323574066162 2.39867019653320312 -0.851171433925628662
-0.605086624622344971 1.36292922496795654 -1.41769015789031982
-3.42253375053405762 7.78076696395874023 -0.0142716420814394951
-1.33175301551818848 5.94037675857543945 -0.755874395370483398
0.03642268106341362 3.63959836959838867 -1.34003710746765137
1.7461007833480835 7.09589576721191406 0.376830339431762695
-3.35289621353149414 7.90367698669433594 -0.723346233367919922
-1.16816127300262451 4.44309282302856445 -0.792415797710418701
1.15981650352478027 7.34080839157104492 -0.250445187091827393
-0.950704514980316162 1.54150891304016113 -1.38302016258239746
1.17526161670684814 2.80994486808776855 -0.8680533766746521
1.13900113105773926 4.23836469650268555 -0.954637765884399414
0.208848059177398682 3.87372207641601562 -0.761724293231964111
1.5525745153427124 3.40147995948791504 -1.36028540134429932
-2.29769420623779297 4.7868804931640625 -0.911501944065093994
-3.38090229034423828 8.05980205535888672 0.594253063201904297
3.1044623851776123 6.86594867706298828 0.2691478431224823
0.690177619457244873 2.87711215019226074 -1.39056646823883057
1.45809662342071533 7.20162057876586914 0.0911681875586509705
2.07105469703674316 7.04543495178222656 -0.36809152364730835
1.02982544898986816 3.0506284236907959 -0.859745144844055176
1.35039150714874268 1.87004852294921875 -1.48322296142578125
0.199159309267997742 2.01331901550292969 -1.0118783712387085
1.81087040901184082 3.12514233589172363 -0.884030818939208984
1.70344507694244385 2.7298731803894043 -1.39838612079620361
0.459103435277938843 3.8367769718170166 -1.33824801445007324
0.253939002752304077 0.96259462833404541 -0.926362991333007812
-2.71842384338378906 5.03730535507202148 -0.747665524482727051
1.91149020195007324 6.96754646301269531 -0.956878781318664551
0.0980772078037261963 7.22675180435180664 -0.779172301292419434
-0.913879096508026123 5.67334747314453125 -0.745832264423370361
-0.646507024765014648 5.83748006820678711 -0.761411070823669434
3.10115432739257812 6.81116437911987305 -0.121403887867927551
1.14792191982269287 7.24943685531616211 0.0611107721924781799
0.022064603865146637 7.467987060546875 0.262924820184707642
3.09538030624389648 6.87281322479248047 -0.642663419246673584
0.290337473154067993 3.98714375495910645 -0.945700645446777344
-0.374928653240203857 1.39442944526672363 -1.44038558006286621
0.16661757230758667 1.08956706523895264 -0.766845166683197021
-2.04082846641540527 4.93907308578491211 -1.08577561378479004
0.431050151586532593 1.09312427043914795 -0.857089042663574219
-0.741998851299285889 7.3404078483581543 -0.768682658672332764
-0.325178980827331543 2.00929069519042969 -1.21386778354644775
0.27527695894241333 3.54884767532348633 -1.23345828056335449
0.846386253833770752 7.10119724273681641 -0.776146113872528076
-0.34246411919593811 1.9248274564743042 -0.86437612771987915
-1.19311022758483887 4.68814325332641602 -0.77339637279510498
-1.52103054523468018 7.48921298980712891 -0.854086041450500488
-0.358034461736679077 5.26783943176269531 -0.8488616943359375
1.02169132232666016 4.45687532424926758 -0.690997064113616943
-1.26644086837768555 5.66126489639282227 -1.26643776893615723
2.40286135673522949 4.36290216445922852 -0.99147331714630127
-0.305630594491958618 1.83292138576507568 -1.4154517650604248
0.486292392015457153 7.15253686904907227 -0.893705368041992188
2.13176941871643066 6.98030281066894531 0.480507880449295044
-0.668071866035461426 1.99189519882202148 -1.39767086505889893
-0.726462423801422119 5.66890096664428711 -0.899229705333709717
-0.530755996704101562 5.65014982223510742 -0.714288532733917236
1.23417818546295166 7.26524639129638672 -0.68150937557220459
-1.11324119567871094 7.67338466644287109 -0.713741302490234375
-0.574325263500213623 1.73849070072174072 -1.4156421422958374
-0.49017295241355896 2.09794831275939941 -1.3863600492477417
0.760769009590148926 4.268157958984375 -0.754870474338531494
1.79429817199707031 3.08449697494506836 -1.27973055839538574
-0.703019797801971436 2.58422160148620605 -1.21836602687835693
1.59148430824279785 7.25165271759033203 -0.950378060340881348
0.0538319870829582214 3.76993155479431152 -0.802725017070770264
1.44494712352752686 7.22040462493896484 -0.738004326820373535
0.963189005851745605 2.66020560264587402 -0.847084701061248779
1.80550217628479004 4.6008753776550293 -0.92579495906829834
-0.451436549425125122 2.11388897895812988 -0.703202903270721436
-1.48885035514831543 7.41612958908081055 -1.06308352947235107
-1.64233720302581787 5.82643795013427734 -0.600005626678466797
1.18400382995605469 3.32101178169250488 -1.37915420532226562
0.782221555709838867 2.87966489791870117 -0.833189427852630615
-1.33710479736328125 3.19833874702453613 -1.35292911529541016
-0.0685979053378105164 4.96852970123291016 -0.65652090311050415
1.12703096866607666 2.21720051765441895 -1.42863714694976807
-0.193858698010444641 1.69130706787109375 -1.04933333396911621
-1.75209534168243408 5.6545567512512207 -0.729386568069458008
2.01082229614257812 7.08721017837524414 0.0179209113121032715
-0.277352899312973022 5.41809606552124023 -0.581487178802490234
1.40974724292755127 4.12940168380737305 -0.972705841064453125
-2.25479745864868164 4.80098867416381836 -1.08908724784851074
0.720806002616882324 1.243965744972229 -1.02882623672485352
-0.0242732539772987366 1.49158871173858643 -1.29198145866394043
0.670480549335479736 3.52676105499267578 -1.33816587924957275
0.554912328720092773 3.06356978416442871 -1.37971174716949463
1.87240886688232422 6.85677909851074219 -1.09555292129516602
-0.422122329473495483 3.48895621299743652 -0.960129916667938232
-1.3858642578125 4.03210115432739258 -0.779547274112701416
-0.246358692646026611 2.9978644847869873 -0.939041376113891602
1.44281387329101562 2.31543922424316406 -1.39885175228118896
0.0280013848096132278 3.29631471633911133 -0.985462486743927002
-3.4006800651550293 7.73135519027709961 -0.765369057655334473
-1.20006310939788818 1.67865574359893799 -1.3537832498550415
1.21824181079864502 3.42499423027038574 -0.826129496097564697
-0.93005836009979248 5.54279708862304688 -0.904524743556976318
2.85474848747253418 6.65595102310180664 -1.02964687347412109
0.147470593452453613 1.12809574604034424 -1.15119767189025879
0.102540574967861176 4.70928525924682617 -0.644916296005249023
0.445949316024780273 1.76033961772918701 -1.03009414672851562
2.23838353157043457 6.83271980285644531 -0.981709301471710205
0.883979916572570801 2.28522181510925293 -1.41529977321624756
1.30875194072723389 2.65085172653198242 -1.4346156120300293
0.399045407772064209 2.78731775283813477 -1.21995043754577637
2.73255515098571777 6.75326824188232422 -0.809802651405334473
2.55838918685913086 5.34036731719970703 -1.14813995361328125
-0.0606452487409114838 3.49469780921936035 -0.982443392276763916
0.378411084413528442 3.33899021148681641 -1.39661276340484619
-2.25815153121948242 5.3433537483215332 -0.909970283508300781
-1.1268693208694458 2.17071795463562012 -1.33919668197631836
0.681953132152557373 2.49895858764648438 -0.84765326976776123
-0.599782586097717285 2.62290692329406738 -1.35527336597442627
-1.91195213794708252 5.66272306442260742 -0.838093459606170654
1.72595977783203125 3.37907743453979492 -1.37716400623321533
0.597691714763641357 3.80591201782226562 -0.964089691638946533
-2.49201011657714844 4.58965826034545898 -0.941407859325408936
0.00353635614737868309 1.42058897018432617 -1.44954967498779297
-1.62771189212799072 3.01662540435791016 -1.3849107027053833
1.08295118808746338 3.97323870658874512 -0.965247631072998047
1.36979496479034424 2.98350787162780762 -1.40042316913604736
0.890201926231384277 3.89992284774780273 -0.958788931369781494
-3.35430145263671875 8.04437541961669922 -0.620713233947753906
0.522975385189056396 1.19687139987945557 -1.01405858993530273
2.22777795791625977 3.68307232856750488 -1.10805165767669678
-0.280238747596740723 2.7906951904296875 -0.974551081657409668
1.40635037422180176 2.96916556358337402 -0.846499979496002197
0.632346987724304199 3.236663818359375 -1.36247372627258301
-2.96197080612182617 7.78910589218139648 -0.719835519790649414
1.02445590496063232 4.43319272994995117 -0.949931144714355469
-1.00606060028076172 1.38579785823822021 -1.42912077903747559
-0.904358625411987305 2.53583216667175293 -1.36510229110717773
-3.74876570701599121 7.95228099822998047 -0.594267189502716064
3.33245062828063965 6.77395248413085938 0.293170273303985596
1.06574451923370361 2.74763369560241699 -1.40867757797241211
-0.688017487525939941 1.51177477836608887 -1.41694533824920654
1.0128558874130249 7.17467021942138672 0.52818143367767334
0.198538258671760559 2.25942277908325195 -1.00172579288482666
-3.42537522315979004 7.85227870941162109 -0.443538814783096313
-0.627594113349914551 2.35765862464904785 -1.37201333045959473
3.65852975845336914 6.51339244842529297 0.0416908152401447296
-1.07763051986694336 5.53073453903198242 -0.989134490489959717
1.08537304401397705 7.28227472305297852 -0.440103322267532349
-0.945558071136474609 2.77453947067260742 -1.38868618011474609
-1.31883084774017334 1.97734987735748291 -1.33073437213897705
-1.45795547962188721 5.83130645751953125 -0.723722517490386963
0.640561342239379883 4.13675451278686523 -0.804823815822601318
1.33318722248077393 4.07632875442504883 -0.809989452362060547
1.42023122310638428 5.46265888214111328 -0.782257020473480225
1.60871398448944092 3.23365068435668945 -1.37624073028564453
-1.14253628253936768 2.50289249420166016 -1.35874688625335693
-1.63431549072265625 4.4205021858215332 -1.1683272123336792
2.43606710433959961 4.69993114471435547 -1.12707114219665527
0.284458458423614502 3.38473987579345703 -1.21193087100982666
-0.7199515700340271 1.8353111743927002 -1.40679621696472168
-0.59784400463104248 3.5140998363494873 -0.999136149883270264
-2.04861092567443848 5.44786167144775391 -0.760172247886657715
2.86326479911804199 6.97185897827148438 0.0118025913834571838
3.0551750659942627 5.72994756698608398 -0.0150455292314291
1.44582152366638184 7.22754955291748047 -0.141107022762298584
0.164067655801773071 3.66767621040344238 -0.967057704925537109
-1.2201840877532959 5.58731889724731445 -0.886168420314788818
1.72357237339019775 7.07818984985351562 -0.781456708908081055
-0.0071602952666580677 1.36779379844665527 -0.745342433452606201
1.32749903202056885 2.70695209503173828 -0.849003434181213379
1.03571629524230957 1.95145916938781738 -1.39283144474029541
0.48032340407371521 3.95227766036987305 -0.964734375476837158
-0.416082620620727539 1.70095944404602051 -1.42443287372589111
-1.39646542072296143 3.48270726203918457 -1.31265997886657715
-1.17249441146850586 3.72918152809143066 -1.31127262115478516
0.0785005092620849609 1.23568761348724365 -0.852838039398193359
0.277552694082260132 3.44027209281921387 -0.97406470775604248
0.546575069427490234 3.46464014053344727 -1.01072192192077637
0.474995791912078857 4.31149578094482422 -0.6306418776512146
1.3984370231628418 3.14097976684570312 -0.839873015880584717
3.33049869537353516 6.85081911087036133 -0.873139023780822754
-2.00975751876831055 5.65484285354614258 -0.570423126220703125
-2.30447196960449219 5.13967323303222656 -0.92651522159576416
-0.127519562840461731 1.66219043731689453 -0.680010020732879639
-3.14864015579223633 8.06732177734375 0.457386285066604614
-0.00819211546331644058 1.38362491130828857 -1.08226943016052246
0.896831393241882324 3.08548307418823242 -1.38927900791168213
-0.21737949550151825 1.86305820941925049 -0.678988814353942871
-2.37745475769042969 5.24954891204833984 -0.67323005199432373
0.751884281635284424 4.1200709342956543 -0.951582551002502441
-0.781768083572387695 2.31441807746887207 -1.37306201457977295
0.296717941761016846 4.30384254455566406 -0.633157253265380859
-1.15125751495361328 2.75215578079223633 -1.38210189342498779
2.10013675689697266 3.04784941673278809 -0.905247271060943604
-1.47773146629333496 2.8883204460144043 -1.38984262943267822
-1.90086770057678223 4.93250131607055664 -0.948436498641967773
-0.879370450973510742 1.77187943458557129 -1.39595472812652588
-2.72747015953063965 5.02443075180053711 -0.905988812446594238
1.64195406436920166 2.8846893310546875 -1.41369223594665527
-1.13491058349609375 3.48979663848876953 -1.34730720520019531
-1.32356119155883789 2.92486977577209473 -1.38368856906890869
-0.147186771035194397 5.12025976181030273 -0.668704450130462646
3.34241199493408203 6.78936433792114258 0.034035366028547287
1.16999852657318115 3.19067168235778809 -0.845514118671417236
0.796048998832702637 2.74076509475708008 -1.39168298244476318
2.18369746208190918 3.43863677978515625 -0.919721722602844238
-1.63315534591674805 3.36650919914245605 -1.31115829944610596
0.397848010063171387 3.0027000904083252 -1.29476284980773926
1.12285888195037842 7.26042604446411133 -0.0987987145781517029
0.157290533185005188 3.30080461502075195 -1.15633583068847656
2.11238598823547363 6.96922588348388672 0.3211631178855896
0.858812689781188965 2.5397636890411377 -0.847279012203216553
2.86415266990661621 5.72585344314575195 -0.759882986545562744
1.11726081371307373 7.21157550811767578 0.216294914484024048
0.77084660530090332 7.22331523895263672 0.492098331451416016
0.0548632405698299408 2.3317713737487793 -0.990143120288848877
-1.45493948459625244 2.67123174667358398 -1.39857387542724609
-1.62458789348602295 5.18870925903320312 -1.10976231098175049
-0.316372513771057129 3.37492918968200684 -0.961027920246124268
-1.52354562282562256 3.16225934028625488 -1.3489680290222168
0.620491743087768555 2.77418255805969238 -0.839665472507476807
-0.792539775371551514 2.08291482925415039 -1.37791800498962402
0.516228973865509033 1.53316104412078857 -1.03689980506896973
2.04286885261535645 2.84229373931884766 -1.32470512390136719
0.496255666017532349 4.09756660461425781 -0.706185340881347656
1.13057422637939453 7.07055854797363281 -0.766936719417572021
0.888227939605712891 4.25099372863769531 -0.954413652420043945
-1.17001903057098389 1.83327698707580566 -1.35657167434692383
1.61930966377258301 5.6527557373046875 -0.912267982959747314
-0.129629254341125488 1.54327702522277832 -1.43322849273681641
1.59163367748260498 2.92476797103881836 -0.859511315822601318
1.28193354606628418 2.80196285247802734 -1.39950048923492432
1.27653348445892334 7.28563117980957031 -0.334475785493850708
-0.218817070126533508 3.73740625381469727 -0.622610688209533691
0.068498760461807251 1.25798368453979492 -1.03785181045532227
-0.290724039077758789 5.13044643402099609 -0.835168659687042236
2.69895386695861816 7.03490924835205078 0.102724701166152954
0.719456136226654053 4.32808828353881836 -0.620045304298400879
-2.52259922027587891 5.17281913757324219 -0.848988533020019531
0.369908452033996582 3.4944450855255127 -1.37010562419891357
1.18022704124450684 2.65667152404785156 -0.85801166296005249
-0.479279428720474243 3.4489281177520752 -0.73861461877822876
-0.413856476545333862 2.05948114395141602 -0.843484997749328613
0.0621563903987407684 2.49219965934753418 -0.997767925262451172
0.848785638809204102 1.32633841037750244 -1.33766162395477295
0.936278223991394043 2.4987335205078125 -1.39480459690093994
-0.1145658940076828 1.70245122909545898 -1.41402816772460938
-1.87829506397247314 5.47677040100097656 -0.903154253959655762
-2.16344904899597168 5.45217275619506836 -0.864289045333862305
-1.0959923267364502 3.89319872856140137 -1.3170090913772583
-0.998629987239837646 1.89521288871765137 -1.37764191627502441
2.13137626647949219 3.17294836044311523 -1.19888150691986084
1.589874267578125 7.10869264602661133 0.351203829050064087
-3.35791587829589844 7.91501808166503906 -0.0386429056525230408
3.37155652046203613 6.72815227508544922 0.45667073130607605
0.21207784116268158 1.02912807464599609 -1.05477535724639893
-0.889378905296325684 5.2226409912109375 -0.941307663917541504
-3.40753817558288574 7.82146453857421875 0.129755899310112
0.755403876304626465 2.28885006904602051 -1.32431554794311523
-1.60567331314086914 5.68652439117431641 -0.909362733364105225
0.770051896572113037 2.58517813682556152 -1.39161884784698486
2.09845829010009766 6.8656620979309082 -0.913060903549194336
1.08448326587677002 3.02620172500610352 -1.39938783645629883
1.24889898300170898 4.33140754699707031 -0.914544522762298584
1.42008852958679199 7.0769805908203125 0.495265811681747437
2.17801070213317871 3.42672824859619141 -1.17232382297515869
-0.152250140905380249 5.26079034805297852 -0.590860188007354736
1.85854923725128174 6.88796472549438477 -0.781870067119598389
-0.217464640736579895 3.59857654571533203 -0.813941061496734619
1.53230381011962891 7.26011419296264648 -0.583930671215057373
0.314544677734375 1.11691868305206299 -0.756760895252227783
-1.05602610111236572 3.26856350898742676 -1.34003031253814697
0.583597540855407715 1.81389784812927246 -1.05427110195159912
2.37059330940246582 4.34369516372680664 -1.13479971885681152
3.14077877998352051 6.80291080474853516 -0.933428704738616943
1.30884671211242676 7.2244877815246582 0.0883871838450431824
0.575308382511138916 2.62447142601013184 -0.838137805461883545
-2.20773816108703613 7.84716606140136719 -0.00273333233781158924
0.324483901262283325 1.93498647212982178 -1.01955485343933105
-0.0476699806749820709 1.49352622032165527 -0.980257868766784668
0.974084138870239258 7.17300271987915039 0.365249186754226685
-1.68910837173461914 7.49578380584716797 -0.858229160308837891
-1.0328366756439209 3.0278019905090332 -1.37712311744689941
2.48521804809570312 6.78855705261230469 -1.02071940898895264
1.42512238025665283 3.5091547966003418 -1.36870479583740234
-2.27316880226135254 5.44886970520019531 -0.595766186714172363
-0.415775835514068604 3.26663804054260254 -0.965806245803833008
0.0228870045393705368 4.84815454483032227 -0.61203467845916748
1.34072482585906982 2.89056587219238281 -1.29073846340179443
1.34822177886962891 2.00905394554138184 -1.38544702529907227
-0.362516939640045166 1.98455488681793213 -1.40645372867584229
0.158055499196052551 3.55877351760864258 -1.33061861991882324
-0.487265080213546753 2.1778254508972168 -0.999783635139465332
1.44823229312896729 2.46886110305786133 -1.43869960308074951
1.26537692546844482 7.18691778182983398 0.371692925691604614
2.14435577392578125 7.02841281890869141 0.0207754448056221008
0.839689195156097412 1.45196783542633057 -1.47546696662902832
-2.13640284538269043 7.8692622184753418 0.285788267850875854
-3.36793780326843262 7.89382696151733398 0.249445453286170959
1.31414592266082764 2.85688328742980957 -0.850502371788024902
0.470726162195205688 3.49989533424377441 -1.15322709083557129
0.853672921657562256 2.65231657028198242 -1.19845879077911377
-1.24437284469604492 4.05211925506591797 -0.757162272930145264
2.69054865837097168 6.71228218078613281 -1.13089501857757568
-1.73903846740722656 5.71680879592895508 -0.863429009914398193
-2.54094696044921875 4.64054298400878906 -1.08741044998168945
-0.438054025173187256 5.54011964797973633 -0.719041407108306885
0.401368051767349243 7.15327024459838867 -0.765057623386383057
1.65533792972564697 3.68165135383605957 -1.36070966720581055
0.0410641506314277649 3.15744233131408691 -1.02206933498382568
1.11191010475158691 4.551513671875 -0.877108931541442871
-0.217384308576583862 3.48452019691467285 -0.982867062091827393
-0.235233843326568604 1.75143325328826904 -0.926082611083984375
-1.13607478141784668 7.66104412078857422 0.309477627277374268
-0.0668132752180099487 2.56490683555603027 -0.985006809234619141
-1.52877581119537354 5.80913782119750977 -0.894129812717437744
0.357749700546264648 4.04177665710449219 -0.661105155944824219
0.756204962730407715 1.22699201107025146 -0.879881680011749268
-0.988958001136779785 5.71783208847045898 -0.858858883380889893
-3.3926537036895752 7.94969415664672852 -0.309804379940032959
-0.275962263345718384 1.49783265590667725 -1.44354355335235596
-0.085933387279510498 3.78757190704345703 -0.635317444801330566
-0.128182336688041687 2.7631223201751709 -0.985221564769744873
-0.0518871843814849854 1.48951184749603271 -0.834040403366088867
1.42037475109100342 7.20610189437866211 0.234068110585212708
3.12201404571533203 6.80193805694580078 0.143628165125846863
-0.807788372039794922 4.1811375617980957 -0.771463215351104736
0.453666061162948608 3.56663274765014648 -0.977418243885040283
-1.26174163818359375 3.08618617057800293 -1.39427697658538818
1.10068130493164062 2.08020615577697754 -1.40869450569152832
1.7337794303894043 3.05152344703674316 -1.41120254993438721
0.470556348562240601 2.6930992603302002 -0.976365923881530762
-0.229814484715461731 1.79242122173309326 -1.16661727428436279
-0.20583246648311615 1.95943224430084229 -1.41612517833709717
-1.68188226222991943 2.88762855529785156 -1.39392197132110596
3.12657284736633301 6.86716508865356445 0.415450155735015869
1.13622152805328369 7.24044418334960938 0.523679971694946289
0.711796820163726807 3.37648415565490723 -1.38287758827209473
0.272838115692138672 4.45124292373657227 -0.638979256153106689
0.263662487268447876 3.77805638313293457 -0.971462249755859375
1.19408595561981201 2.35105371475219727 -1.41468429565429688
-0.776814579963684082 5.75491809844970703 -0.753489315509796143
1.58929800987243652 7.17534065246582031 0.12949468195438385
0.671304583549499512 7.11030912399291992 -0.936910629272460938
0.912518084049224854 3.20627307891845703 -1.32225549221038818
1.2614208459854126 2.68093252182006836 -1.13657593727111816
1.43638694286346436 3.10157585144042969 -1.37101173400878906
0.393515259027481079 0.969119668006896973 -0.906239449977874756
0.777701675891876221 2.28867769241333008 -0.905913412570953369
-2.63409209251403809 5.26026678085327148 -0.593592643737792969
0.538536667823791504 3.1853330135345459 -1.44978594779968262
1.12320423126220703 2.93752121925354004 -0.861168324947357178
0.886372685432434082 2.97028350830078125 -0.839540302753448486
0.719514250755310059 3.01212596893310547 -0.830624639987945557
0.510060369968414307 1.09168660640716553 -1.11220145225524902
4.05012655258178711 6.21610736846923828 -0.863426566123962402
-1.24912643432617188 2.64414143562316895 -1.36786890029907227
2.1142427921295166 3.18434405326843262 -0.954050362110137939
3.23279356956481934 6.70785617828369141 0.0209165401756763458
-0.115257874131202698 3.66665172576904297 -0.884882271289825439
-1.43027544021606445 5.90336942672729492 -0.884122788906097412
-1.07902586460113525 1.61130154132843018 -1.36949777603149414
0.706613421440124512 1.59054064750671387 -1.06779170036315918
-2.62087082862854004 5.40383434295654297 -1.30171966552734375
0.94704127311706543 3.17250752449035645 -0.845222592353820801
-0.795122265815734863 2.85123801231384277 -1.37072288990020752
1.76334750652313232 7.01773738861083984 0.486862599849700928
2.32915592193603516 4.05188369750976562 -1.01539647579193115
1.02347266674041748 7.19593048095703125 0.0704026669263839722
2.11037969589233398 2.98680639266967773 -1.15886378288269043
-3.39184045791625977 7.79850864410400391 -0.145168423652648926
-0.217646896839141846 3.18568778038024902 -0.977198183536529541
-0.355836242437362671 5.38960504531860352 -0.688169777393341064
0.989296019077301025 2.45000314712524414 -0.881566047668457031
-1.22149109840393066 2.07132267951965332 -1.32754838466644287
1.60818421840667725 7.19771146774291992 -0.273440778255462646
1.35607922077178955 3.36899900436401367 -1.37342596054077148
2.34991097450256348 6.81499958038330078 -0.900863230228424072
0.848707437515258789 1.27425050735473633 -1.06212115287780762
-1.45777714252471924 4.49104166030883789 -0.764238893985748291
-1.27197027206420898 3.86354565620422363 -0.948679566383361816
1.79182004928588867 6.92342948913574219 -0.914577662944793701
1.44007337093353271 2.17362451553344727 -1.4319145679473877
-0.822178125381469727 1.54933762550354004 -1.42298603057861328
0.427525103092193604 2.07049012184143066 -1.05511283874511719
3.72173023223876953 6.62219047546386719 0.0869888067245483398
3.22602224349975586 6.72882270812988281 -0.747331678867340088
-1.2981266975402832 3.87092757225036621 -1.22511816024780273
1.34479916095733643 7.28436279296875 -0.206952854990959167
0.772031664848327637 2.29194355010986328 -1.04527413845062256
0.0736599564552307129 1.40266811847686768 -1.28172421455383301
-1.0545344352722168 2.40517377853393555 -1.37379276752471924
1.38292908668518066 3.43700265884399414 -0.832515537738800049
2.24233531951904297 3.80466246604919434 -0.899193704128265381
-0.551129460334777832 2.23505568504333496 -1.37653708457946777
0.491707324981689453 3.71629786491394043 -0.973082542419433594
0.109542317688465118 1.51180267333984375 -1.42990636825561523
3.91792845726013184 6.29582738876342773 -0.948931515216827393
-3.12265515327453613 8.14279747009277344 -0.184734880924224854
-2.49793863296508789 5.29941892623901367 -0.604439079761505127
-2.18675565719604492 4.76229619979858398 -0.977744221687316895
1.36840331554412842 7.1111912727355957 -0.857441604137420654
-2.60563349723815918 5.11248111724853516 -0.755687415599822998
-0.025185825303196907 7.50159025192260742 -0.01143624447286129
-3.1271367073059082 8.02569866180419922 0.259508341550827026
0.181906387209892273 7.29657602310180664 -0.851361215114593506
-0.163143575191497803 1.82662665843963623 -1.29549515247344971
-0.618794858455657959 2.37824440002441406 -0.982272684574127197
-2.45048999786376953 5.34954547882080078 -0.745554149150848389
0.865453183650970459 2.76662707328796387 -0.843619167804718018
-0.191871002316474915 2.50415706634521484 -0.975231051445007324
1.2005918025970459 3.91877603530883789 -0.98047792911529541
1.01412701606750488 4.30318927764892578 -0.955308198928833008
-1.52913248538970947 3.44711852073669434 -1.30977463722229004
0.853615105152130127 4.02498722076416016 -0.958938717842102051
2.61305356025695801 6.74944400787353516 -0.861424922943115234
-0.410674631595611572 3.55381488800048828 -0.677158474922180176
-1.92875313758850098 5.6927027702331543 -0.685651838779449463
-2.9173731803894043 4.98705863952636719 -0.754075467586517334
-3.56426358222961426 7.85377264022827148 -0.625752389430999756
-0.618820369243621826 2.36673116683959961 -0.720969974994659424
1.61100053787231445 3.18613100051879883 -0.847919821739196777
-0.778554677963256836 4.27677631378173828 -1.23444545269012451
2.01214218139648438 7.0278477668762207 0.378821134567260742
1.22446560859680176 7.03736162185668945 -0.864088356494903564
-0.808721661567687988 2.87614583969116211 -1.21457362174987793
-0.873406887054443359 3.06248712539672852 -1.38232159614562988
-1.14239501953125 4.77606010437011719 -1.07928049564361572
0.382063448429107666 2.80196070671081543 -0.917275846004486084
1.5628284215927124 2.73476624488830566 -1.40401923656463623
0.275511890649795532 3.33466625213623047 -1.0884709358215332
-1.03372812271118164 2.89073491096496582 -1.38139843940734863
-0.503212034702301025 1.42320168018341064 -1.46851038932800293
-1.07397818565368652 7.65033292770385742 0.0701027438044548035
-2.07677626609802246 5.50229644775390625 -0.647019386291503906
2.57649803161621094 5.42171764373779297 -0.987758159637451172
1.67382729053497314 3.0538642406463623 -0.834757506847381592
1.13823676109313965 2.47478604316711426 -1.41277980804443359
-2.8540036678314209 5.07929849624633789 -0.634848356246948242
0.786950886249542236 3.82548952102661133 -0.972812950611114502
-0.369308114051818848 2.07532715797424316 -1.3164222240447998
-2.14444994926452637 4.86227798461914062 -1.10960292816162109
-2.69370484352111816 4.52124357223510742 -0.914934992790222168
0.691893577575683594 3.70437145233154297 -0.96574711799621582
0.538567125797271729 1.05755484104156494 -0.9153900146484375
-2.05573368072509766 5.39752483367919922 -0.904420912265777588
1.11957550048828125 4.09456968307495117 -0.954102754592895508
-1.04017031192779541 2.26796603202819824 -1.35707759857177734
-2.70734333992004395 4.53819608688354492 -1.13956248760223389
-0.0587810762226581573 7.48300933837890625 0.359730064868927002
0.0208940748125314713 3.80152654647827148 -0.952239394187927246
-1.66721439361572266 4.45121908187866211 -0.880452513694763184
0.295073479413986206 3.96370887756347656 -0.739732265472412109
-2.37424635887145996 4.65349578857421875 -0.942414164543151855
1.19670569896697998 4.30625343322753906 -0.802068352699279785
0.672285676002502441 1.24896395206451416 -1.23951113224029541
0.64857017993927002 4.19243049621582031 -0.921350181102752686
-1.09516501426696777 5.68084287643432617 -0.750494241714477539
3.07350540161132812 6.76909112930297852 -0.00555909564718604088
0.895841360092163086 3.36743927001953125 -1.38262248039245605
0.515289068222045898 4.05756902694702148 -0.838755130767822266
-0.845442354679107666 2.20541596412658691 -1.37040913105010986
-0.451705574989318848 5.56649017333984375 -0.898492157459259033
0.029065404087305069 1.57033681869506836 -0.741261124610900879
-0.630765676498413086 1.62579381465911865 -1.41743028163909912
1.50690674781799316 7.29613590240478516 -0.229209482669830322
0.412521123886108398 4.0576019287109375 -0.951968669891357422
-1.5806882381439209 7.46922922134399414 -0.745076298713684082
0.976232826709747314 7.2747344970703125 -0.214048415422439575
0.958582818508148193 4.54711151123046875 -0.63038402795791626
0.953930079936981201 7.31263160705566406 0.191583991050720215
-2.81913995742797852 5.2449498176574707 -1.27950000762939453
1.27022349834442139 7.21126079559326172 -0.911613583564758301
1.70680725574493408 7.22013092041015625 0.204384684562683105
1.99726390838623047 2.60473108291625977 -1.25929439067840576
1.02606165409088135 2.86655640602111816 -1.41128206253051758
-0.345670849084854126 1.94442319869995117 -1.09952783584594727
-0.697380363941192627 2.48955798149108887 -0.937294542789459229
2.1331169605255127 3.25629401206970215 -1.10576391220092773
-0.0438910834491252899 3.06492090225219727 -1.09074866771697998
0.140229806303977966 3.93032550811767578 -0.639742791652679443
1.06296801567077637 2.73519635200500488 -0.8466683030128479
0.864576756954193115 4.36451292037963867 -0.720522582530975342
-0.993612885475158691 7.39825439453125 -0.766373157501220703
-0.296474277973175049 1.84673535823822021 -0.775095522403717041
1.59817981719970703 7.3139958381652832 -0.316670268774032593
-1.36273717880249023 3.32341766357421875 -1.34685778617858887
0.805737674236297607 2.49672579765319824 -1.28357839584350586
-0.895212054252624512 1.65155112743377686 -1.42221808433532715
1.34992098808288574 7.30080890655517578 -0.708915352821350098
-0.794874906539916992 4.22446060180664062 -1.04163849353790283
-3.36329388618469238 7.94720315933227539 -0.544173240661621094
-0.862291395664215088 2.67534160614013672 -1.35037434101104736
0.662196993827819824 1.35297036170959473 -1.03576266765594482
-0.142006397247314453 1.58376085758209229 -0.780414283275604248
-0.365978360176086426 1.5811011791229248 -1.42743551731109619
-1.33243143558502197 3.67812442779541016 -1.28926312923431396
0.551251530647277832 3.5253448486328125 -1.37075138092041016
-0.0787423849105834961 1.60402798652648926 -1.2344290018081665
-1.92603731155395508 5.52614688873291016 -0.798625290393829346
1.00846219062805176 2.24618268013000488 -1.410552978515625
0.181542143225669861 2.13730311393737793 -1.00582718849182129
0.584775686264038086 2.94573545455932617 -1.35892164707183838
-3.11116266250610352 8.05624008178710938 0.00736463116481900215
1.59834587574005127 6.94589853286743164 -0.870412230491638184
1.18899857997894287 7.29601573944091797 0.292030364274978638
-0.332520633935928345 2.19302034378051758 -1.37333774566650391
1.13489997386932373 4.36113739013671875 -0.948882043361663818
0.522002577781677246 7.17511272430419922 -0.76496422290802002
1.97144508361816406 6.87451362609863281 -0.904184341430664062
-2.30015659332275391 5.33460283279418945 -0.789843559265136719
0.918300032615661621 7.06631898880004883 -0.939018130302429199
1.86755657196044922 7.09070348739624023 0.390510201454162598
1.23043346405029297 2.09545707702636719 -1.40008533000946045
0.190458744764328003 1.06119346618652344 -0.890342772006988525
1.27437138557434082 3.22298216819763184 -1.38596224784851074
2.20302271842956543 6.83662700653076172 -1.09830105304718018
1.9149620532989502 4.46782398223876953 -0.947772443294525146
-0.494337618350982666 3.43526053428649902 -0.878033041954040527
0.16715984046459198 3.37868523597717285 -0.972603797912597656
2.03064560890197754 7.0843353271484375 -0.260121345520019531
0.262553364038467407 3.61960244178771973 -1.34341228008270264
1.73955261707305908 3.17130231857299805 -0.970983982086181641
-0.401030987501144409 2.06905007362365723 -1.11629283428192139
-0.766626894474029541 2.60252070426940918 -1.37290620803833008
1.32938480377197266 4.20583152770996094 -0.918443024158477783
-0.304991275072097778 3.56049203872680664 -0.905720353126525879
0.745111405849456787 2.39603781700134277 -0.856616497039794922
-0.599514901638031006 1.86277878284454346 -1.41486537456512451
-0.134057998657226562 1.58716702461242676 -1.03148519992828369
-0.0742503851652145386 3.23057270050048828 -0.974582970142364502
-1.21433579921722412 3.22345113754272461 -1.34648311138153076
0.627459347248077393 4.02031517028808594 -0.962510108947753906
0.310208380222320557 1.71373772621154785 -1.02237975597381592
-2.65471673011779785 5.14813756942749023 -0.647996485233306885
1.24265575408935547 2.54482698440551758 -1.42649316787719727
-0.949267804622650146 2.00481820106506348 -1.38174855709075928
0.288894891738891602 4.59570550918579102 -0.625500917434692383
-3.45921874046325684 7.85620546340942383 -0.693547308444976807
0.506194889545440674 2.85095310211181641 -0.836350381374359131
-1.11882507801055908 4.01087474822998047 -1.32301115989685059
0.617091536521911621 1.46734118461608887 -1.03932535648345947
1.15978133678436279 3.32060551643371582 -0.834479212760925293
0.823863089084625244 4.36068487167358398 -0.938204288482666016
0.704390525817871094 3.59008193016052246 -1.00779330730438232
-3.35242080688476562 8.03333282470703125 -0.0516275055706501007
-1.31685435771942139 1.67081880569458008 -1.33192360401153564
0.775189220905303955 2.9597165584564209 -1.40186679363250732
1.03075146675109863 2.58774542808532715 -1.40585732460021973
2.8009796142578125 6.72429037094116211 -0.91637122631072998
-0.355311065912246704 3.25926995277404785 -0.843699514865875244
1.025063157081604 4.41564416885375977 -0.818159162998199463
-0.0391004271805286407 7.47429704666137695 -0.68741452693939209
0.23080800473690033 0.993465304374694824 -0.801773488521575928
1.31490015983581543 2.31352949142456055 -1.4177711009979248
-2.29273676872253418 5.35402011871337891 -0.664373278617858887
-3.58809614181518555 6.81057977676391602 -0.698464035987854004
1.15592718124389648 3.20604681968688965 -1.38107872009277344
1.49334049224853516 2.99777460098266602 -1.39772999286651611
2.05846714973449707 2.72933268547058105 -1.22639226913452148
-2.2978205680847168 4.7182917594909668 -1.00784194469451904
-0.847170770168304443 2.4122166633605957 -1.38486063480377197
2.09621644020080566 6.99961662292480469 -0.790313541889190674
-0.362886667251586914 5.4983220100402832 -0.63168942928314209
-1.00876903533935547 5.45548677444458008 -0.912708103656768799
-1.0144582986831665 3.51639866828918457 -1.3396533727645874
-0.349197149276733398 3.23012971878051758 -1.06059026718139648
0.214719876646995544 3.89855408668518066 -0.88773733377456665
0.98781430721282959 7.22848272323608398 -0.476859390735626221
