ply
format ascii 1.0
element vertex 128
comment vertices
property float x
property float y
property float z
end_header
-0.547737002372741699 1.23778343200683594 -1.42318630218505859
-4.25841665267944336 8.07716560363769531 0.110688604414463043
3.50949239730834961 6.02990388870239258 -0.39997100830078125
-0.715220630168914795 5.66440725326538086 -0.185276329517364502
2.30839014053344727 3.54154229164123535 -1.23070025444030762
-3.53693938255310059 6.4560704231262207 -2.32696747779846191
1.56694245338439941 7.30678462982177734 0.742078125476837158
-2.25167393684387207 7.55534934997558594 -0.138782262802124023
-2.54620933532714844 4.47662067413330078 -0.867301464080810547
-0.0196104347705841064 3.4985654354095459 -1.32471668720245361
2.34913039207458496 6.56383085250854492 -1.58201944828033447
-4.28511619567871094 6.37129688262939453 -0.492649763822555542
2.01608467102050781 1.57483828067779541 -1.55884957313537598
1.27632427215576172 5.35309982299804688 -0.474628448486328125
-1.60350894927978516 2.60468959808349609 -1.86930489540100098
-1.43625593185424805 7.34388971328735352 -1.64182960987091064
-0.230507969856262207 7.20247650146484375 -0.365260422229766846
3.23240089416503906 4.95202302932739258 -0.690674066543579102
-3.3193056583404541 7.49426555633544922 -0.735830962657928467
1.20543015003204346 2.79355335235595703 -1.01059305667877197
-2.03228473663330078 5.90999031066894531 -0.513063311576843262
2.47920560836791992 4.20438051223754883 0.246467575430870056
0.564495325088500977 4.22717666625976562 -1.76320350170135498
-1.54260706901550293 5.9370880126953125 -2.09996676445007324
-1.60449695587158203 4.74076414108276367 -1.19540321826934814
2.88744497299194336 7.03967571258544922 0.104084715247154236
-3.02886343002319336 5.58372735977172852 -1.5323491096496582
1.9054570198059082 5.39520883560180664 -1.63793027400970459
0.716726720333099365 1.22002363204956055 -0.978119015693664551
0.465421974658966064 6.69907045364379883 -1.30580854415893555
2.24716353416442871 2.62131524085998535 -1.2515561580657959
-1.43263888359069824 1.69600260257720947 -1.70374524593353271
2.88754558563232422 6.63481855392456055 -0.870019078254699707
-0.362689703702926636 4.88532876968383789 -1.69381332397460938
-0.332335025072097778 1.80385482311248779 -0.915940999984741211
-3.43370771408081055 8.07213020324707031 0.471259534358978271
-0.679430961608886719 0.480872452259063721 -0.82739412784576416
1.52660751342773438 7.12447547912597656 -0.601138114929199219
0.222002804279327393 3.65120887756347656 -0.405236184597015381
0.387641876935958862 2.48687291145324707 -2.09493494033813477
4.03933906555175781 5.13055038452148438 0.124549038708209991
-0.956948220729827881 2.7810211181640625 -1.14366245269775391
3.86050963401794434 6.03268527984619141 -1.12014615535736084
-0.167334705591201782 7.75666284561157227 0.373331576585769653
1.84346699714660645 4.16448640823364258 -1.31901860237121582
1.78056466579437256 2.60496711730957031 -1.91926538944244385
-1.23445534706115723 3.2737584114074707 -1.6086115837097168
-1.02233576774597168 7.4983067512512207 0.141601502895355225
-1.0986858606338501 7.4061579704284668 -0.89798426628112793
-3.70347094535827637 7.50005149841308594 -0.313155114650726318
0.371427685022354126 2.90947532653808594 -1.88586866855621338
-2.3873131275177002 5.08009719848632812 -0.982226073741912842
-1.22513127326965332 8.19102001190185547 -0.890446901321411133
-0.0400019101798534393 1.11124873161315918 -0.651676297187805176
1.22037661075592041 3.68791437149047852 -1.03609180450439453
0.799038052558898926 2.12253379821777344 -1.4293980598449707
-1.6467902660369873 6.03817319869995117 -0.894147515296936035
-0.972013771533966064 5.07275867462158203 -1.60616493225097656
2.2373359203338623 6.62862968444824219 -0.562111496925354004
-1.64083194732666016 3.89888668060302734 -1.43859601020812988
2.17062520980834961 6.88816547393798828 0.548100113868713379
-0.703971385955810547 3.90711617469787598 -0.963700294494628906
-4.10368633270263672 7.92151927947998047 -0.855715513229370117
-0.632393181324005127 4.79689502716064453 -1.02696812152862549
-0.998528242111206055 7.87819814682006836 -0.181154787540435791
-2.30851364135742188 7.85762453079223633 -1.04016637802124023
1.51312851905822754 2.34537672996520996 -1.50632750988006592
-0.564725518226623535 2.23404955863952637 -1.80863416194915771
-0.381439924240112305 3.18008327484130859 -1.27564239501953125
0.544610261917114258 7.00692605972290039 -0.263248533010482788
0.365837454795837402 3.80192685127258301 -1.20410895347595215
2.29950213432312012 4.64919948577880859 -1.20660912990570068
0.867286920547485352 7.62350130081176758 0.460672616958618164
-2.40211653709411621 6.97025871276855469 -0.558219611644744873
2.40528964996337891 6.6780552864074707 -0.649005353450775146
0.52731025218963623 0.876893699169158936 -1.74508678913116455
3.27263522148132324 6.71818780899047852 -0.0691045969724655151
1.10546779632568359 4.38451242446899414 -1.28275406360626221
-0.961893796920776367 4.64162302017211914 -0.910010039806365967
0.518945634365081787 7.38881158828735352 -0.862263321876525879
1.56825685501098633 2.86307144165039062 -0.657367289066314697
0.0505874641239643097 3.60802030563354492 -0.699212431907653809
1.20496773719787598 3.35938024520874023 -1.58401525020599365
3.15240168571472168 5.72518110275268555 -0.660745918750762939
-3.80686450004577637 6.42186880111694336 -0.313739389181137085
-3.20888400077819824 5.20572853088378906 -0.693005084991455078
-2.96575808525085449 4.33755397796630859 -1.65886354446411133
-1.43465650081634521 1.93306159973144531 -2.02265453338623047
0.409808903932571411 2.33594393730163574 -0.891205430030822754
-3.53939247131347656 8.13131618499755859 0.160446733236312866
0.478353828191757202 5.8227386474609375 -0.625036239624023438
-1.83107852935791016 5.81612539291381836 -0.641959309577941895
-0.717007875442504883 4.02109909057617188 -2.07864761352539062
-2.1274106502532959 4.24744129180908203 -0.839652419090270996
1.87667858600616455 2.33539533615112305 -0.660207808017730713
2.26055407524108887 7.14801120758056641 -1.03300869464874268
-2.01074123382568359 4.57581758499145508 -1.99274551868438721
-1.12771439552307129 1.6594996452331543 -1.59705924987792969
3.66602516174316406 6.47954702377319336 -0.633367180824279785
2.43182039260864258 6.5897974967956543 -1.22198367118835449
0.969583690166473389 2.46508646011352539 -2.07955193519592285
0.0144133120775222778 0.841129422187805176 -1.40514636039733887
-2.06427311897277832 7.43989086151123047 -0.966626882553100586
-0.471516847610473633 1.96244025230407715 -1.01018571853637695
0.302481919527053833 1.63591992855072021 -1.12135970592498779
1.98235702514648438 6.54110193252563477 0.0556001663208007812
3.5471184253692627 5.19611597061157227 -0.416795194149017334
0.907376587390899658 3.08990097045898438 -2.06877422332763672
1.26403963565826416 6.49930810928344727 -1.27724027633666992
-4.5762782096862793 7.72119235992431641 -0.433715164661407471
0.277187496423721313 4.2979588508605957 -0.917303681373596191
0.980176985263824463 6.73786640167236328 0.783018290996551514
0.910219728946685791 6.9472198486328125 -0.777634978294372559
-1.50917816162109375 7.63623476028442383 -0.721311271190643311
-3.29365420341491699 7.44119691848754883 0.28112417459487915
-2.71450924873352051 7.19548940658569336 -0.241307437419891357
-1.36907780170440674 3.29327726364135742 -0.509882807731628418
-0.161261141300201416 1.60368108749389648 -1.59972882270812988
-3.66586160659790039 8.10115718841552734 0.0931946039199829102
0.360285699367523193 3.11918354034423828 -1.17513632774353027
-1.54871463775634766 3.58865690231323242 -0.916494548320770264
-0.897928595542907715 2.77952408790588379 -1.82847929000854492
-0.343749493360519409 4.4301447868347168 -1.07997715473175049
-0.506603598594665527 0.914969861507415771 -1.04193592071533203
-0.674495697021484375 3.56422853469848633 -1.66440367698669434
2.92291975021362305 4.50022602081298828 -0.800649523735046387
-3.78998303413391113 7.66069507598876953 -0.77726900577545166
1.87611699104309082 2.7789456844329834 -1.58331239223480225
