ply
format ascii 1.0
element vertex 766
comment vertices
property float x
property float y
property float z
end_header
0.995145857334136963 7.30365514755249023 -0.637665867805480957
-1.18559658527374268 2.37322902679443359 -1.38169002532958984
-0.297384530305862427 3.55530881881713867 -0.868913173675537109
0.804272890090942383 1.28244924545288086 -1.1361771821975708
-0.949815690517425537 1.76566004753112793 -1.40235674381256104
1.07738840579986572 2.14961767196655273 -1.40731990337371826
-0.915973007678985596 1.71548724174499512 -1.40009415149688721
0.110419727861881256 3.87023234367370605 -0.681717872619628906
2.43846821784973145 4.75436878204345703 -1.15012001991271973
1.07288491725921631 7.28389644622802734 -0.262657612562179565
0.574012517929077148 7.13131284713745117 -0.811005532741546631
-0.811289489269256592 5.83661556243896484 -0.829291105270385742
-0.229379028081893921 1.93592154979705811 -1.40482807159423828
0.526609838008880615 1.0969243049621582 -1.06669104099273682
-0.596900224685668945 1.55050790309906006 -1.42338657379150391
0.0898835435509681702 2.39528489112854004 -0.98989260196685791
-0.132581695914268494 3.11085724830627441 -0.978290081024169922
-0.37057042121887207 1.9840623140335083 -0.816353976726531982
0.504420757293701172 1.64099764823913574 -1.03153145313262939
-0.633434772491455078 2.15640854835510254 -1.38421273231506348
-0.355292558670043945 1.60424709320068359 -1.42473995685577393
0.355580240488052368 0.990817785263061523 -0.805040895938873291
0.340190857648849487 2.01860857009887695 -1.02561664581298828
-1.12951803207397461 4.76947975158691406 -1.04035341739654541
0.160758987069129944 2.08227348327636719 -1.00893521308898926
2.02301144599914551 7.04463434219360352 0.229818567633628845
0.433381855487823486 1.8801422119140625 -1.02383244037628174
0.226349920034408569 1.0031585693359375 -0.725514471530914307
-1.17845535278320312 1.90010654926300049 -1.3503035306930542
0.998684525489807129 3.14826679229736328 -1.40863549709320068
0.990496277809143066 7.22503089904785156 -0.137829691171646118
-0.197857081890106201 3.61824965476989746 -0.775593817234039307
-0.226138278841972351 3.12918567657470703 -0.96012580394744873
1.07374083995819092 7.1992802619934082 0.262542843818664551
-0.0395990647375583649 1.52856051921844482 -1.26815545558929443
0.576791763305664062 1.39570760726928711 -1.02951514720916748
-0.106951907277107239 1.54546928405761719 -1.03535401821136475
-0.915065526962280273 2.18478083610534668 -1.37561929225921631
-0.149725407361984253 1.59549009799957275 -0.786338269710540771
0.282708853483200073 0.951488673686981201 -0.86686331033706665
-0.0772121846675872803 1.49902784824371338 -1.06188464164733887
-0.470138072967529297 2.14464473724365234 -0.700249135494232178
1.79154157638549805 2.92801189422607422 -1.44582688808441162
-1.92123627662658691 5.53650760650634766 -0.820475220680236816
-0.053738858550786972 1.50501394271850586 -1.11730992794036865
-0.537342607975006104 5.70525598526000977 -0.847765624523162842
1.30287182331085205 2.68244028091430664 -0.892159879207611084
0.521769046783447266 2.67440986633300781 -0.844308853149414062
0.240418165922164917 4.47405815124511719 -0.634639501571655273
-0.473235994577407837 2.20701050758361816 -1.3741525411605835
1.08243298530578613 2.68153071403503418 -0.85152357816696167
-0.931740939617156982 3.2394249439239502 -1.38277292251586914
-2.27657175064086914 4.79114818572998047 -1.07805633544921875
0.562556266784667969 1.12638390064239502 -1.11542963981628418
-0.335192441940307617 1.86064708232879639 -1.42735624313354492
-0.0120155103504657745 3.74082756042480469 -0.747208178043365479
-1.0539010763168335 1.79966127872467041 -1.37278342247009277
-1.09959280490875244 1.73502540588378906 -1.3581540584564209
1.42075181007385254 7.22595548629760742 -0.910450100898742676
0.307702153921127319 0.966813802719116211 -0.880353569984436035
-0.691438674926757812 1.51621317863464355 -1.43460607528686523
-0.938461542129516602 1.64121735095977783 -1.40978682041168213
-0.341719001531600952 2.76675081253051758 -0.840501010417938232
1.44823229312896729 2.46886110305786133 -1.43869960308074951
-0.198083072900772095 1.47208738327026367 -1.44367301464080811
-0.861731112003326416 1.99595355987548828 -1.37893509864807129
0.678969144821166992 1.14275813102722168 -0.90654146671295166
-1.43874609470367432 3.23012518882751465 -1.33270692825317383
-0.134493187069892883 1.57454884052276611 -0.761215865612030029
1.08166563510894775 2.28251957893371582 -1.41493988037109375
-0.675016641616821289 2.32280492782592773 -1.38131439685821533
-0.0884733796119689941 1.40865540504455566 -1.44827008247375488
0.388561040163040161 0.969062209129333496 -0.90342104434967041
-0.905478775501251221 2.21448040008544922 -1.36629986763000488
2.09204697608947754 6.86278486251831055 -1.07912766933441162
-0.310079276561737061 2.12882852554321289 -1.38100695610046387
0.527893424034118652 1.86155152320861816 -1.05183887481689453
1.10852301120758057 2.15176296234130859 -1.41905879974365234
0.43610835075378418 1.02648079395294189 -0.902297496795654297
-0.80364459753036499 1.85003936290740967 -1.40491116046905518
-0.477903962135314941 1.77075958251953125 -1.41020584106445312
-0.799287736415863037 1.48717308044433594 -1.41877639293670654
-0.397402137517929077 2.05622172355651855 -1.08018743991851807
0.621651709079742432 1.16269731521606445 -1.05631899833679199
0.399397581815719604 2.79810476303100586 -1.11320483684539795
1.10901737213134766 7.21062755584716797 0.322712481021881104
0.161858230829238892 1.10500144958496094 -0.959323763847351074
0.277394920587539673 0.951455533504486084 -0.906452298164367676
0.771384894847869873 2.30285000801086426 -1.25978195667266846
1.19851326942443848 3.22198581695556641 -0.840475380420684814
2.29453301429748535 6.79853296279907227 -0.812075018882751465
-0.872938334941864014 1.75545167922973633 -1.39743483066558838
-2.15538954734802246 4.85559558868408203 -0.995367467403411865
-2.58708357810974121 5.21290016174316406 -0.895639002323150635
0.140583664178848267 1.27926230430603027 -0.709188580513000488
0.842813611030578613 2.4340827465057373 -0.852826118469238281
-0.676643192768096924 1.64041697978973389 -1.41242325305938721
-0.787297189235687256 1.90414226055145264 -1.38933444023132324
-0.662177205085754395 1.52745652198791504 -1.42637228965759277
0.00152802735101431608 1.35180461406707764 -0.736441731452941895
-0.14849381148815155 1.39486134052276611 -1.43985545635223389
-0.204386606812477112 1.43872976303100586 -1.43309831619262695
0.00735830375924706459 3.83414959907531738 -0.655672669410705566
-0.577260434627532959 2.31034946441650391 -1.03069174289703369
0.437556356191635132 1.86066257953643799 -1.0219416618347168
-1.28275048732757568 3.88762569427490234 -0.901055812835693359
-0.814626574516296387 1.3897017240524292 -1.43720865249633789
-1.01766359806060791 2.06513214111328125 -1.37655723094940186
1.14238202571868896 3.21071124076843262 -1.4194328784942627
0.249681010842323303 0.964392006397247314 -0.7938385009765625
-0.571482241153717041 3.53693652153015137 -0.718053579330444336
-1.06079995632171631 2.64474582672119141 -1.3702702522277832
0.475759208202362061 2.67824769020080566 -0.930871129035949707
-0.399908512830734253 5.44129705429077148 -0.725625514984130859
-2.30834722518920898 5.30712080001831055 -0.707850515842437744
0.360502332448959351 4.01419878005981445 -0.919061362743377686
-0.0841188728809356689 3.73885154724121094 -0.683832108974456787
0.803628802299499512 4.38240289688110352 -0.642604947090148926
2.14304089546203613 6.85569334030151367 -1.08981382846832275
0.0674847513437271118 1.38791763782501221 -0.699070930480957031
0.0572710670530796051 1.38842475414276123 -1.41977119445800781
1.48529088497161865 3.4429323673248291 -1.36359977722167969
-2.18566560745239258 7.84393930435180664 0.449391752481460571
1.33494186401367188 4.21059799194335938 -0.886532008647918701
-0.148007437586784363 1.58787095546722412 -1.43310940265655518
-0.705847799777984619 1.79029202461242676 -1.41121101379394531
0.763821005821228027 1.40038371086120605 -1.04757189750671387
1.09872281551361084 2.52801275253295898 -0.854200184345245361
-0.599310398101806641 1.93074393272399902 -1.39918899536132812
2.89447999000549316 6.6786503791809082 -0.833768129348754883
0.670586168766021729 2.77381253242492676 -1.39843189716339111
0.979603171348571777 2.71032214164733887 -1.4102485179901123
0.425194710493087769 1.6230928897857666 -1.02598738670349121
-1.09883368015289307 1.86976337432861328 -1.36661791801452637
1.29485988616943359 2.68514013290405273 -0.933050394058227539
-0.273957580327987671 1.80821728706359863 -0.703160524368286133
-2.5441138744354248 5.1514897346496582 -0.798049807548522949
-1.6502300500869751 4.41939210891723633 -1.15953481197357178
-0.906859397888183594 1.93935644626617432 -1.38678300380706787
0.841999530792236328 1.28664445877075195 -1.08736753463745117
-1.90987300872802734 5.57738256454467773 -0.888344347476959229
-0.202986076474189758 1.64877188205718994 -1.4321666955947876
-0.737300634384155273 2.45115232467651367 -1.36322438716888428
0.305363178253173828 0.962108314037322998 -0.845314264297485352
0.539118528366088867 1.05835425853729248 -0.900959491729736328
0.286645650863647461 0.948782742023468018 -0.798727810382843018
0.0995893701910972595 1.20095157623291016 -0.748848497867584229
0.0476694367825984955 1.28672635555267334 -0.998213350772857666
1.11654114723205566 2.1507723331451416 -1.4127126932144165
-0.399065494537353516 1.59758758544921875 -1.42909514904022217
-1.1036754846572876 2.1900324821472168 -1.350380539894104
-2.05127096176147461 5.59726572036743164 -0.565873086452484131
-0.0911243483424186707 1.50848519802093506 -0.937857747077941895
-0.389986187219619751 2.04559493064880371 -0.937623023986816406
-0.615898489952087402 2.3666079044342041 -0.82444310188293457
-1.34588158130645752 2.12276029586791992 -1.31498408317565918
-3.55976080894470215 7.86226081848144531 -0.780386984348297119
0.145370826125144958 1.126495361328125 -0.758373677730560303
-1.28612232208251953 3.8812413215637207 -0.876902759075164795
-0.105186000466346741 1.74158394336700439 -1.41713094711303711
0.272613614797592163 0.971136629581451416 -0.716642260551452637
0.124483928084373474 1.44692349433898926 -1.43355453014373779
-1.10760378837585449 2.00754570960998535 -1.3664623498916626
2.4744720458984375 6.76949548721313477 -1.08149373531341553
0.619461178779602051 2.49382328987121582 -0.884241580963134766
1.10615909099578857 2.04798316955566406 -1.41295242309570312
-0.605592250823974609 2.35261106491088867 -0.864427566528320312
1.1787794828414917 2.87627005577087402 -1.40616166591644287
-0.128510951995849609 1.85101532936096191 -1.4103463888168335
0.374465465545654297 1.00411891937255859 -0.818323791027069092
2.37088584899902344 4.29306554794311523 -0.924857079982757568
-1.23701918125152588 2.08587932586669922 -1.35275828838348389
1.79494833946228027 3.08368349075317383 -1.15766727924346924
0.516614258289337158 4.08011531829833984 -0.947091162204742432
0.237924322485923767 0.979793071746826172 -0.752880573272705078
0.105353459715843201 1.18979096412658691 -0.777722477912902832
-0.705252528190612793 1.86686897277832031 -1.41030430793762207
1.46158647537231445 3.23338913917541504 -0.844549894332885742
-0.0305963270366191864 1.40684413909912109 -0.824863731861114502
-0.977997839450836182 1.73597335815429688 -1.38452720642089844
-1.0012509822845459 1.49403464794158936 -1.42546927928924561
0.509262919425964355 1.64652907848358154 -1.03080761432647705
-0.120530128479003906 1.55426311492919922 -0.898055076599121094
-0.0198682229965925217 3.1162269115447998 -1.09523940086364746
-0.490322530269622803 1.62090969085693359 -1.42390871047973633
-0.943534493446350098 1.5356900691986084 -1.42691731452941895
-1.03562247753143311 2.35773921012878418 -1.363838791847229
-0.427399873733520508 2.07880854606628418 -0.691184043884277344
-0.0302307792007923126 1.57127225399017334 -0.696718096733093262
2.36422443389892578 6.80765819549560547 -0.836797773838043213
0.642993807792663574 1.58435893058776855 -1.05277979373931885
0.966654658317565918 3.20388913154602051 -0.834015369415283203
-0.340466767549514771 1.58402335643768311 -1.42487072944641113
3.23279356956481934 6.70785617828369141 0.0209165401756763458
0.347956389188766479 3.47037625312805176 -0.981164336204528809
-3.41711282730102539 7.79716348648071289 -0.674130558967590332
-2.09730052947998047 5.43359088897705078 -0.789410829544067383
0.183620572090148926 1.10265994071960449 -0.704898595809936523
-0.664197444915771484 1.51151514053344727 -1.42957973480224609
0.0956790000200271606 2.08944940567016602 -1.00421905517578125
-0.969014942646026611 2.03144407272338867 -1.3845677375793457
-0.871941089630126953 1.56325662136077881 -1.42306947708129883
-1.39197278022766113 3.02131175994873047 -1.37513291835784912
-0.448480725288391113 3.36986398696899414 -0.982959926128387451
0.594866275787353516 1.08877027034759521 -0.895180940628051758
0.285765796899795532 2.14540481567382812 -1.02705883979797363
0.672397911548614502 3.01574444770812988 -1.37593245506286621
0.723088383674621582 1.17314863204956055 -0.897920846939086914
-2.54556894302368164 5.18222522735595703 -0.640253007411956787
-0.829145729541778564 1.54087686538696289 -1.41998684406280518
1.15981650352478027 7.34080839157104492 -0.250445187091827393
0.201868698000907898 1.04296326637268066 -1.02435433864593506
-0.532179892063140869 2.23697662353515625 -0.764077603816986084
0.778299927711486816 3.65508413314819336 -0.987711489200592041
-0.896566569805145264 2.04385876655578613 -1.37556886672973633
0.499093025922775269 1.03316104412078857 -0.906786620616912842
-0.323231786489486694 1.89125776290893555 -0.802572011947631836
-0.262949526309967041 1.81434392929077148 -1.12236881256103516
-0.0626816526055335999 1.4384235143661499 -1.42948579788208008
0.0715746134519577026 1.25093972682952881 -1.14294266700744629
0.563366949558258057 2.61073541641235352 -0.850298762321472168
-0.748783528804779053 2.52929568290710449 -1.38829278945922852
-0.538596570491790771 1.78466653823852539 -1.42257142066955566
0.0668076947331428528 1.25809681415557861 -1.07698500156402588
3.67909431457519531 6.60077953338623047 0.119271747767925262
0.118505120277404785 1.17436754703521729 -1.10997569561004639
-2.10717105865478516 4.84318208694458008 -0.945479810237884521
0.632861077785491943 2.47131872177124023 -0.91822439432144165
-0.262047380208969116 2.84944462776184082 -0.863734424114227295
-0.806933462619781494 1.39876210689544678 -1.45061790943145752
-0.790297031402587891 1.64046740531921387 -1.41041254997253418
-1.49175024032592773 7.49431705474853516 -0.799725890159606934
1.18291640281677246 3.27277159690856934 -0.834728658199310303
-2.05125164985656738 5.50756692886352539 -0.677167594432830811
0.921845376491546631 3.21338200569152832 -1.33213555812835693
1.06050670146942139 2.29026126861572266 -1.42028820514678955
1.12552940845489502 3.03948187828063965 -0.842146337032318115
-0.441804945468902588 2.08259153366088867 -1.39647626876831055
-0.776961207389831543 2.18125033378601074 -1.3812793493270874
3.31486606597900391 6.77781057357788086 0.270667970180511475
0.742412924766540527 1.37362015247344971 -1.04253649711608887
-0.439927250146865845 1.59952330589294434 -1.41790282726287842
0.053639683872461319 1.27354466915130615 -0.814439058303833008
-1.11882507801055908 4.01087474822998047 -1.32301115989685059
-0.499743103981018066 3.46093630790710449 -0.70139610767364502
0.940155565738677979 3.23817086219787598 -1.38533270359039307
0.352842062711715698 0.993371069431304932 -0.897871851921081543
0.54114145040512085 4.17893457412719727 -0.64862525463104248
1.08312892913818359 2.10678791999816895 -1.43285441398620605
-0.917272806167602539 1.52499032020568848 -1.42998993396759033
-0.565546631813049316 2.20963072776794434 -1.3888322114944458
1.27601265907287598 2.3713986873626709 -1.4253469705581665
0.201762109994888306 3.86883044242858887 -0.775808334350585938
0.983973026275634766 7.19364023208618164 0.0816389769315719604
-0.297974914312362671 1.86154067516326904 -1.01181554794311523
-0.474190801382064819 2.10986948013305664 -1.38845598697662354
1.78636598587036133 3.10344552993774414 -1.15879547595977783
0.010884690098464489 1.34150302410125732 -0.920576691627502441
0.251384079456329346 0.959747970104217529 -0.798021078109741211
-0.46905788779258728 5.67725372314453125 -0.602652668952941895
0.681520164012908936 2.65337848663330078 -0.845264077186584473
1.08297288417816162 2.54085111618041992 -1.38491272926330566
-0.301585763692855835 1.72263491153717041 -1.41578114032745361
-2.6965491771697998 5.07120847702026367 -0.798991739749908447
2.47940897941589355 6.72872734069824219 -1.12540054321289062
-0.195045381784439087 1.93973648548126221 -1.39658188819885254
0.749817192554473877 4.24393081665039062 -0.872915506362915039
0.62038952112197876 1.12518441677093506 -0.89680248498916626
-0.628504633903503418 1.43720805644989014 -1.43271386623382568
1.34195101261138916 3.39551162719726562 -0.836493015289306641
-1.31685435771942139 1.67081880569458008 -1.33192360401153564
0.081495240330696106 1.22945177555084229 -0.791789233684539795
0.352138340473175049 0.992658436298370361 -0.851379096508026123
-0.391133993864059448 2.04493069648742676 -0.96987462043762207
0.142202958464622498 1.18072450160980225 -0.700162529945373535
0.461544960737228394 1.71094036102294922 -1.0258028507232666
-0.0171775389462709427 1.5012977123260498 -1.32174253463745117
-0.853614091873168945 2.84831380844116211 -1.3705977201461792
0.254744768142700195 3.62414431571960449 -0.975527346134185791
0.68661046028137207 1.38319098949432373 -1.03996694087982178
-0.183939695358276367 3.6189873218536377 -0.803676247596740723
-0.613830208778381348 1.75223016738891602 -1.41310083866119385
0.874115347862243652 2.35586833953857422 -1.40721547603607178
-0.107538938522338867 1.61568069458007812 -0.685600578784942627
-0.980506658554077148 1.98469114303588867 -1.37904274463653564
1.07071077823638916 2.74776339530944824 -1.40218722820281982
0.35060235857963562 3.75798535346984863 -0.979516088962554932
-0.332391917705535889 5.33520412445068359 -0.710257411003112793
-0.0614995509386062622 1.4906851053237915 -0.827744722366333008
0.686879515647888184 3.80913043022155762 -0.963055849075317383
-0.279494047164916992 1.83449947834014893 -1.04963874816894531
-1.08518850803375244 2.25990462303161621 -1.35332465171813965
-1.23395276069641113 1.90216302871704102 -1.34801852703094482
0.938085854053497314 2.41565370559692383 -0.880360782146453857
-0.21109086275100708 1.7094043493270874 -0.879356026649475098
0.0967739000916481018 2.13029050827026367 -0.999480247497558594
0.0971150845289230347 1.20314991474151611 -0.951910853385925293
-0.18163473904132843 1.8840477466583252 -1.41639518737792969
-1.04383349418640137 1.6801217794418335 -1.40258753299713135
0.67659372091293335 1.30684363842010498 -1.02817773818969727
0.846544146537780762 1.28735578060150146 -1.12472295761108398
1.16058754920959473 2.80131435394287109 -0.865620136260986328
-0.118552066385746002 1.82603895664215088 -1.4059375524520874
-0.623281717300415039 1.66146039962768555 -1.42441272735595703
0.235652118921279907 0.989377677440643311 -0.871074378490447998
0.0597716569900512695 1.53472697734832764 -1.43453538417816162
2.15355682373046875 6.85276651382446289 -0.973702311515808105
-2.15203118324279785 5.46957778930664062 -0.88712841272354126
1.07609319686889648 7.25650358200073242 -0.00129914539866149426
0.260455220937728882 0.950696229934692383 -0.748009204864501953
0.75193101167678833 1.24205660820007324 -1.07948195934295654
-0.780330359935760498 2.32497501373291016 -1.37921512126922607
0.175266087055206299 1.08360803127288818 -0.723148345947265625
-0.687326192855834961 2.4691157341003418 -0.72269892692565918
-0.495915055274963379 1.54002416133880615 -1.42507314682006836
-0.0398295149207115173 7.46426868438720703 0.0635440945625305176
0.264057964086532593 0.946255028247833252 -0.797098636627197266
0.0585773289203643799 3.2823481559753418 -1.17987537384033203
0.0565268434584140778 1.26259434223175049 -0.921619236469268799
2.07638669013977051 2.85134458541870117 -1.07393336296081543
-2.64825940132141113 4.51876640319824219 -1.00954520702362061
0.04883594810962677 3.77949881553649902 -0.893693149089813232
0.117260023951530457 1.17544376850128174 -0.952181518077850342
0.101037360727787018 1.20327699184417725 -0.98184436559677124
-0.0903908088803291321 1.54891765117645264 -0.691587567329406738
0.0859158262610435486 3.18786025047302246 -1.03763282299041748
0.218313723802566528 1.0210946798324585 -0.950300753116607666
-0.268277853727340698 1.79918408393859863 -0.810889005661010742
0.599375128746032715 1.13873684406280518 -1.11304163932800293
-0.274972736835479736 1.80397629737854004 -0.760825097560882568
-0.342682391405105591 2.19803881645202637 -1.37120342254638672
-0.00572708155959844589 3.45985150337219238 -0.978538274765014648
-2.13652849197387695 4.87352085113525391 -1.08338725566864014
-0.0317864641547203064 1.42029893398284912 -1.03511106967926025
1.17526161670684814 2.80994486808776855 -0.8680533766746521
-0.259186446666717529 1.58385121822357178 -1.43666398525238037
1.03757846355438232 3.25787162780761719 -0.827323615550994873
0.481553375720977783 1.02030408382415771 -0.916487693786621094
-0.740751922130584717 1.76107370853424072 -1.4133450984954834
0.0895540714263916016 1.21568083763122559 -0.740134775638580322
-1.60567331314086914 5.68652439117431641 -0.909362733364105225
-0.431791156530380249 2.08727335929870605 -0.845978677272796631
-0.681017577648162842 2.47178125381469727 -0.909163773059844971
-0.152506589889526367 1.51525974273681641 -1.42573153972625732
-1.45532524585723877 5.85354280471801758 -0.769223153591156006
0.494350910186767578 2.65606236457824707 -0.939615249633789062
-3.05322432518005371 8.06810379028320312 0.433298975229263306
0.0444189533591270447 3.81795310974121094 -0.695615053176879883
-0.412731260061264038 2.02043366432189941 -1.40128600597381592
-0.631519496440887451 1.41581606864929199 -1.43334066867828369
0.473617970943450928 1.02111923694610596 -0.926370143890380859
-0.759456038475036621 1.43448925018310547 -1.44184708595275879
-1.07638454437255859 3.3125002384185791 -1.35091423988342285
-1.1082378625869751 1.41712653636932373 -1.42841804027557373
0.379928737878799438 2.80336594581604004 -0.970915377140045166
0.74318993091583252 1.39007377624511719 -1.04394209384918213
-1.03260576725006104 1.86616790294647217 -1.38230395317077637
0.403556406497955322 2.79498434066772461 -1.18580925464630127
-1.27780270576477051 7.45572996139526367 -0.804900288581848145
-1.05864036083221436 2.18113589286804199 -1.36023032665252686
-0.587129771709442139 1.62957644462585449 -1.42435038089752197
0.282031148672103882 0.954102933406829834 -0.926126360893249512
2.0504910945892334 7.05065822601318359 0.323197484016418457
-2.36458969116210938 5.26905298233032227 -0.811398029327392578
-0.264406353235244751 1.90869510173797607 -0.676176786422729492
-0.162285074591636658 1.80441820621490479 -1.41977322101593018
0.962622404098510742 2.77937531471252441 -0.845546126365661621
1.83665037155151367 3.11690020561218262 -0.97108381986618042
0.373735278844833374 1.00841772556304932 -0.881863594055175781
-0.467124581336975098 3.41545939445495605 -0.961773335933685303
0.0648189187049865723 1.30042243003845215 -0.703967750072479248
-0.188112437725067139 1.77437984943389893 -1.42112886905670166
-1.18750393390655518 1.78661584854125977 -1.36601364612579346
0.399472415447235107 1.67502140998840332 -1.02617216110229492
-0.392176449298858643 1.95236110687255859 -1.40492093563079834
-2.75526595115661621 5.10187339782714844 -0.890757501125335693
-2.1899869441986084 5.41160917282104492 -0.698599815368652344
0.830436170101165771 3.13609647750854492 -1.3784787654876709
-0.181743025779724121 1.65954303741455078 -0.939956784248352051
0.792269289493560791 2.39337849617004395 -0.854647696018218994
0.71133655309677124 2.91719269752502441 -1.40296876430511475
0.922572672367095947 2.41267132759094238 -1.41087973117828369
0.857496917247772217 2.79796218872070312 -1.40015184879302979
0.0433477945625782013 3.1787104606628418 -1.11585319042205811
-0.52415776252746582 2.22969198226928711 -0.979024529457092285
-1.25766324996948242 2.91124796867370605 -1.38258707523345947
-0.440811634063720703 5.57419586181640625 -0.733718574047088623
0.164324834942817688 1.10037899017333984 -0.832982718944549561
0.185702696442604065 1.07052016258239746 -0.994131267070770264
0.74613344669342041 2.32220053672790527 -0.955843269824981689
-1.81009161472320557 5.65235233306884766 -0.678653597831726074
0.428706318140029907 1.01859533786773682 -0.976533770561218262
1.37928986549377441 7.23535823822021484 0.0413678251206874847
-2.56996536254882812 5.17285060882568359 -0.840282261371612549
0.185932531952857971 3.8624727725982666 -0.964074671268463135
-0.164531558752059937 1.78293538093566895 -1.41761898994445801
-0.715627729892730713 1.49702250957489014 -1.42611157894134521
-0.566371738910675049 2.29888510704040527 -1.05128180980682373
1.51470029354095459 7.09050750732421875 0.440933585166931152
-2.53354072570800781 4.56967639923095703 -0.938390374183654785
-0.807006776332855225 2.01618671417236328 -1.38109683990478516
0.196576327085494995 3.25569701194763184 -1.03029179573059082
-0.157528012990951538 1.62339580059051514 -0.970431149005889893
0.560226142406463623 1.49852561950683594 -1.03553640842437744
0.257821619510650635 0.954463064670562744 -0.782753944396972656
-0.0261594168841838837 1.41206324100494385 -0.706719577312469482
0.698706209659576416 2.38441038131713867 -0.899498999118804932
0.762432277202606201 1.20630836486816406 -0.893553555011749268
0.10593549907207489 1.18874132633209229 -0.732181251049041748
-2.85283589363098145 5.06947851181030273 -0.887464463710784912
-1.87765681743621826 5.62892627716064453 -0.697905540466308594
-0.509175717830657959 2.20403766632080078 -0.715597331523895264
0.142784491181373596 2.16342782974243164 -1.00420987606048584
-0.604080677032470703 1.40881359577178955 -1.45614910125732422
-0.783730149269104004 1.60163044929504395 -1.41843438148498535
2.06183886528015137 7.0005950927734375 0.113179244101047516
-0.88875126838684082 2.97690510749816895 -1.38490164279937744
-0.215563967823982239 1.71331584453582764 -0.901570975780487061
-0.837135672569274902 1.60800111293792725 -1.40680325031280518
1.1737525463104248 7.29886388778686523 -0.173243358731269836
1.65280568599700928 7.051788330078125 0.452803939580917358
3.6876366138458252 6.59563302993774414 0.17439723014831543
-0.840570807456970215 2.59330868721008301 -1.36971366405487061
0.855422616004943848 1.25193989276885986 -1.0501103401184082
0.162499189376831055 1.10679113864898682 -1.11194908618927002
-1.22380685806274414 3.31716322898864746 -1.32693898677825928
1.14133310317993164 2.24836564064025879 -1.40900313854217529
1.65533792972564697 3.68165135383605957 -1.36070966720581055
-0.786496877670288086 1.5498654842376709 -1.42717504501342773
-0.267407149076461792 1.79551386833190918 -0.797121822834014893
0.0262777823954820633 1.3163306713104248 -0.822624444961547852
0.539092361927032471 1.78551590442657471 -1.02983760833740234
1.14308369159698486 2.69209623336791992 -1.39706242084503174
-0.532519400119781494 1.74392759799957275 -1.42391085624694824
0.190458744764328003 1.06119346618652344 -0.890342772006988525
1.39211976528167725 3.54453325271606445 -1.35265779495239258
0.066622510552406311 1.50849783420562744 -1.43677961826324463
-0.516219377517700195 2.20528626441955566 -1.3795323371887207
0.866206705570220947 4.35629606246948242 -0.95337444543838501
0.229156613349914551 0.99837261438369751 -0.887850463390350342
-0.167470559477806091 1.86704981327056885 -1.41336095333099365
-0.337728410959243774 1.90877056121826172 -1.40786409378051758
1.1276015043258667 2.06402468681335449 -1.41836059093475342
1.23305821418762207 2.75716567039489746 -0.873009145259857178
0.205112844705581665 3.46892857551574707 -0.983744144439697266
-2.73343014717102051 5.04568386077880859 -0.814836740493774414
-0.698682248592376709 1.4998466968536377 -1.42391598224639893
-0.231632694602012634 1.51344060897827148 -1.44389009475708008
0.688285291194915771 1.34088551998138428 -1.03673684597015381
-2.56059670448303223 4.57400703430175781 -0.983906805515289307
-1.22844982147216797 3.48052358627319336 -1.32325530052185059
0.686103284358978271 3.8495028018951416 -0.965745925903320312
0.645576894283294678 1.28795158863067627 -1.0279994010925293
1.00164079666137695 3.09982919692993164 -0.855632126331329346
-2.19310426712036133 7.87707424163818359 -0.0686103403568267822
-0.523516654968261719 2.22242403030395508 -0.744994699954986572
-0.0620050616562366486 1.66490602493286133 -1.42394447326660156
-0.794807076454162598 1.92472171783447266 -1.39417684078216553
-0.305923014879226685 2.06306123733520508 -1.3751753568649292
-1.27134037017822266 3.27213501930236816 -1.35324966907501221
-1.15935301780700684 2.48056221008300781 -1.35310149192810059
-0.529743075370788574 2.23982930183410645 -1.04409372806549072
0.0677960515022277832 1.25709068775177002 -1.01614606380462646
-0.784328222274780273 1.65192687511444092 -1.42000234127044678
0.290011614561080933 0.950665295124053955 -0.784199714660644531
0.00152971898205578327 1.36770486831665039 -1.08832895755767822
-0.391452580690383911 1.75911402702331543 -1.41840314865112305
0.619494855403900146 1.27822220325469971 -1.03489780426025391
-0.0308037437498569489 1.40575611591339111 -0.803711652755737305
-1.06844902038574219 2.03220748901367188 -1.35609829425811768
0.351479142904281616 0.986946284770965576 -0.758529305458068848
0.0797691643238067627 3.28284907341003418 -0.987093448638916016
-2.82929635047912598 4.98028659820556641 -0.751331031322479248
-0.11957656592130661 1.55331337451934814 -0.718736410140991211
-0.335893809795379639 1.73832666873931885 -1.41972994804382324
-0.178140774369239807 1.64579093456268311 -0.785145282745361328
0.188244625926017761 1.16013598442077637 -0.70405125617980957
-0.846005022525787354 2.34467744827270508 -1.37503230571746826
0.154245674610137939 1.11870908737182617 -0.889801442623138428
-2.1605522632598877 5.32663965225219727 -0.905265331268310547
2.10801029205322266 3.0290064811706543 -0.96217036247253418
-0.183135673403739929 1.65386247634887695 -0.834888696670532227
0.153608843684196472 1.12096965312957764 -1.12300479412078857
-0.197423115372657776 1.43390631675720215 -1.45897769927978516
-0.668593406677246094 2.61552286148071289 -1.33465731143951416
1.19434630870819092 3.26683402061462402 -0.839482247829437256
-1.07443702220916748 1.9504474401473999 -1.37797427177429199
-0.716402411460876465 2.08748555183410645 -1.37921321392059326
-0.817691504955291748 2.17589592933654785 -1.37883102893829346
0.64773261547088623 1.59869563579559326 -1.05414044857025146
-2.05846428871154785 4.91859006881713867 -1.06271326541900635
-0.985687792301177979 1.89107275009155273 -1.38936758041381836
-0.668956518173217773 2.2046046257019043 -1.37698674201965332
0.815213680267333984 1.29057347774505615 -1.10976088047027588
0.103377856314182281 2.19329142570495605 -1.00402390956878662
0.925987958908081055 2.52876591682434082 -1.41204047203063965
-0.901216268539428711 1.58134734630584717 -1.41706132888793945
-0.369994401931762695 1.9866492748260498 -1.00613605976104736
1.36584901809692383 3.3399655818939209 -1.36850273609161377
-0.0440825223922729492 3.85755681991577148 -0.631629824638366699
-1.03920662403106689 1.8286362886428833 -1.37458741664886475
3.09236860275268555 6.7936253547668457 0.0861430838704109192
2.58851456642150879 6.76788091659545898 -1.0788801908493042
1.6615370512008667 7.04180335998535156 0.463734209537506104
0.0390652678906917572 1.43435215950012207 -0.699851155281066895
0.563886344432830811 4.15046548843383789 -0.690495491027832031
0.53870701789855957 1.30487024784088135 -1.02614545822143555
0.181961819529533386 1.07078564167022705 -0.853854000568389893
-0.667212069034576416 2.43975257873535156 -0.679176032543182373
-0.89481651782989502 1.97492778301239014 -1.39095664024353027
-0.460638731718063354 2.13368606567382812 -0.998516201972961426
1.08003771305084229 2.51778912544250488 -0.856371700763702393
0.625373423099517822 1.11940348148345947 -0.895106375217437744
0.48991057276725769 1.07121789455413818 -0.904060125350952148
0.22150653600692749 1.88468921184539795 -1.01298582553863525
0.0375711657106876373 1.56754720211029053 -1.41053569316864014
0.88371729850769043 1.28692114353179932 -1.10131514072418213
-0.00168510782532393932 1.35836207866668701 -0.720726251602172852
0.873586833477020264 2.43245697021484375 -1.38808345794677734
1.4647219181060791 3.28448820114135742 -1.35042810440063477
0.361226290464401245 0.949501872062683105 -0.911186635494232178
-0.410257011651992798 2.04851484298706055 -0.7110329270362854
-0.0334782488644123077 2.74674105644226074 -1.00083017349243164
-0.84429621696472168 1.66465651988983154 -1.39932620525360107
0.0088397543877363205 1.3516392707824707 -0.973477721214294434
-0.945187628269195557 1.83549332618713379 -1.38735306262969971
2.85777688026428223 6.73143815994262695 -1.01666545867919922
0.666924536228179932 2.44208192825317383 -0.880262792110443115
-0.808380782604217529 1.81722486019134521 -1.40490090847015381
2.10436010360717773 7.03018522262573242 0.0436437763273715973
-0.43777814507484436 3.49019336700439453 -0.726177692413330078
-0.425077080726623535 3.39892792701721191 -0.963183760643005371
3.0387117862701416 6.89791059494018555 -0.847438037395477295
-0.562554657459259033 1.74115312099456787 -1.40789520740509033
0.561616182327270508 1.67893767356872559 -1.0375593900680542
3.30778264999389648 6.76558017730712891 0.214326351881027222
0.389430463314056396 2.79156899452209473 -1.05618119239807129
-1.29301285743713379 3.88956379890441895 -0.841000974178314209
0.0328036248683929443 1.3196178674697876 -1.10438835620880127
-0.815166711807250977 1.57030987739562988 -1.41441881656646729
1.23555660247802734 3.99774670600891113 -0.960225880146026611
2.1367192268371582 3.00586462020874023 -0.991753101348876953
0.0742335617542266846 3.79341244697570801 -0.741328775882720947
0.430180937051773071 1.86460614204406738 -1.01982343196868896
0.359786123037338257 1.79436910152435303 -1.02149200439453125
-0.416182935237884521 1.40719878673553467 -1.45884335041046143
-0.0672585144639015198 1.49470901489257812 -1.00437498092651367
-0.360258519649505615 1.98080837726593018 -1.11074578762054443
1.25145912170410156 2.69555854797363281 -1.24647688865661621
0.210288792848587036 1.03119313716888428 -0.885052978992462158
1.01928055286407471 7.19043684005737305 0.118336886167526245
0.143816769123077393 2.28588557243347168 -0.999303758144378662
-0.526008129119873047 2.51845359802246094 -1.3715519905090332
0.923374533653259277 2.25854372978210449 -1.40332698822021484
0.409993022680282593 1.90627562999725342 -1.02506601810455322
0.568957686424255371 1.33981955051422119 -1.03494858741760254
0.175321117043495178 1.0764000415802002 -0.73772507905960083
0.82784193754196167 2.39913749694824219 -0.855989933013916016
0.0630897358059883118 3.5689384937286377 -0.97179412841796875
-0.46304166316986084 2.15831899642944336 -0.673145174980163574
-1.69621098041534424 5.59676218032836914 -0.897384464740753174
-0.0674035102128982544 1.53499007225036621 -0.691803693771362305
-0.0890083163976669312 3.69002413749694824 -0.760024726390838623
0.669048547744750977 2.77224206924438477 -1.38474249839782715
-1.26139390468597412 1.96408474445343018 -1.3408348560333252
0.0161427818238735199 3.79599452018737793 -0.728461742401123047
-1.27756738662719727 1.90790045261383057 -1.33810007572174072
2.08103394508361816 3.21448922157287598 -1.24424147605895996
-0.507870614528656006 2.07055234909057617 -1.395233154296875
3.68039774894714355 6.61003446578979492 -0.0817430093884468079
0.933703780174255371 4.45805549621582031 -0.643013060092926025
0.86622166633605957 1.2675321102142334 -1.02050840854644775
-0.405933976173400879 2.14542245864868164 -1.38300406932830811
0.885055959224700928 3.20679426193237305 -1.30890893936157227
3.31035137176513672 6.76197290420532227 0.191886737942695618
-0.947135686874389648 2.80110263824462891 -1.38239717483520508
-0.158956900238990784 1.62983453273773193 -1.4101097583770752
1.29682815074920654 3.17938446998596191 -0.846201121807098389
0.22820068895816803 1.00603115558624268 -0.984243273735046387
-1.20709109306335449 3.30090761184692383 -1.34905624389648438
-0.390685021877288818 1.55763888359069824 -1.42511343955993652
0.532424032688140869 4.10359382629394531 -0.90395057201385498
-0.645398914813995361 2.50206804275512695 -1.37723660469055176
0.554926931858062744 1.39460062980651855 -1.03291070461273193
0.364613562822341919 1.7756197452545166 -1.02357017993927002
1.51993668079376221 7.21992921829223633 0.019856555387377739
-0.36155998706817627 5.32113790512084961 -0.81759190559387207
0.0800022855401039124 1.22874188423156738 -0.751364469528198242
0.648233115673065186 1.55953836441040039 -1.0479729175567627
0.00276049645617604256 1.52414309978485107 -0.713049590587615967
-2.21734714508056641 4.76025962829589844 -0.941417813301086426
-1.0937882661819458 1.56565654277801514 -1.38510334491729736
0.586375057697296143 3.42591667175292969 -1.36089730262756348
1.05238282680511475 2.03865408897399902 -1.41292178630828857
0.164640694856643677 1.10300683975219727 -0.877027213573455811
-0.0613404102623462677 1.74173259735107422 -1.41625487804412842
3.69904494285583496 6.57815074920654297 0.130507335066795349
0.132172375917434692 1.14637279510498047 -0.810792744159698486
1.03281557559967041 2.50258755683898926 -1.38884103298187256
-0.223764568567276001 2.78154611587524414 -0.981973588466644287
-0.967880785465240479 2.07778406143188477 -1.37317883968353271
-0.854091227054595947 1.97453975677490234 -1.37951493263244629
-0.715060830116271973 1.75833392143249512 -1.40576004981994629
-1.15208649635314941 3.98107028007507324 -0.811058878898620605
1.30473697185516357 3.44048666954040527 -1.381561279296875
0.0305989477783441544 1.3112027645111084 -0.885808706283569336
-0.309241801500320435 1.61984610557556152 -1.42812800407409668
-0.998684287071228027 3.2771143913269043 -1.34225285053253174
1.03160989284515381 2.36608505249023438 -1.41577315330505371
-0.471825569868087769 5.57027387619018555 -0.754372239112854004
0.159850195050239563 3.7534172534942627 -0.96725618839263916
-0.356398224830627441 1.43294394016265869 -1.45730054378509521
2.0958559513092041 2.83566808700561523 -1.24302208423614502
-0.811692774295806885 1.50777888298034668 -1.42056047916412354
-0.39722907543182373 2.05351114273071289 -0.97873234748840332
1.11653244495391846 1.96212053298950195 -1.40393757820129395
0.84961313009262085 1.26006603240966797 -1.01475930213928223
-1.37750923633575439 2.8657677173614502 -1.38363158702850342
0.544583499431610107 2.91574573516845703 -1.3724210262298584
0.389798998832702637 2.79117298126220703 -0.972365081310272217
0.301908195018768311 3.9324946403503418 -0.771424829959869385
-0.574388206005096436 1.58403778076171875 -1.43026721477508545
0.0896881073713302612 1.22253096103668213 -1.10580778121948242
-0.829167187213897705 2.59335708618164062 -1.36338889598846436
-1.08068215847015381 1.99614489078521729 -1.36850202083587646
-0.359493255615234375 2.14687323570251465 -0.689695775508880615
-0.952187836170196533 3.0299074649810791 -1.37633144855499268
0.261026203632354736 0.949266970157623291 -0.733894467353820801
3.32736992835998535 6.77666044235229492 0.0794062316417694092
-1.40791618824005127 3.03591322898864746 -1.35471093654632568
1.30748403072357178 7.20060825347900391 -0.896234810352325439
0.517050981521606445 1.04695498943328857 -0.91259998083114624
0.19887244701385498 1.041176438331604 -0.838372409343719482
-0.933677017688751221 1.65520322322845459 -1.41215264797210693
-0.225531086325645447 3.12045574188232422 -0.963887274265289307
1.47151589393615723 2.8511655330657959 -1.42044901847839355
0.43518376350402832 0.988296627998352051 -0.914593338966369629
-0.61203467845916748 1.4565354585647583 -1.44696378707885742
0.650323331356048584 3.00015997886657715 -1.36922276020050049
-0.714641809463500977 2.11057877540588379 -1.38889491558074951
-0.956256508827209473 5.66926956176757812 -0.767050027847290039
0.20627380907535553 1.03332066535949707 -0.857763469219207764
0.944466650485992432 2.44495511054992676 -1.38189578056335449
0.743962466716766357 1.25687503814697266 -1.04622149467468262
-0.413055926561355591 1.92173957824707031 -1.41396522521972656
1.34222316741943359 4.17678594589233398 -0.895321249961853027
0.249459847807884216 3.29233121871948242 -1.00673127174377441
0.649090111255645752 3.65976810455322266 -0.969554901123046875
-0.574325263500213623 1.73849070072174072 -1.4156421422958374
-0.431712418794631958 2.09643268585205078 -1.10188841819763184
0.288801759481430054 3.95219898223876953 -0.960859298706054688
-0.556381344795227051 3.51457905769348145 -0.991269052028656006
0.0350687019526958466 3.14172720909118652 -1.0368046760559082
-2.48197031021118164 5.20468378067016602 -0.872585594654083252
0.789802134037017822 2.53453326225280762 -1.38781905174255371
-0.800640761852264404 4.26032400131225586 -1.23022198677062988
0.0588694959878921509 1.26796495914459229 -0.997227132320404053
0.788512289524078369 2.88847851753234863 -1.38733851909637451
0.499399423599243164 2.65879487991333008 -0.861958742141723633
0.188194379210472107 1.05285334587097168 -0.762563526630401611
-0.8689308762550354 2.85811185836791992 -1.38213050365447998
-0.00863917730748653412 1.42227685451507568 -0.701556026935577393
0.287112206220626831 3.33418560028076172 -1.05332338809967041
0.535125613212585449 1.33337461948394775 -1.02341794967651367
-0.917875111103057861 1.87867999076843262 -1.3938288688659668
1.26307237148284912 2.89873528480529785 -0.852504849433898926
0.139238893985748291 7.22691106796264648 -0.817732691764831543
0.771431267261505127 2.59189629554748535 -0.850546658039093018
-0.903761982917785645 1.68809032440185547 -1.39652717113494873
0.203221186995506287 1.04583823680877686 -0.96453094482421875
-0.194849804043769836 1.68428075313568115 -0.929913103580474854
-0.682632982730865479 1.47344541549682617 -1.42959296703338623
-1.26378321647644043 2.04261445999145508 -1.34649980068206787
-1.09587717056274414 1.79398715496063232 -1.37429749965667725
-2.19633054733276367 5.40805196762084961 -0.678516089916229248
0.402609795331954956 2.78953385353088379 -1.00119948387145996
-1.1297760009765625 4.76881551742553711 -1.20911765098571777
0.0170998461544513702 3.13309216499328613 -1.07385766506195068
0.280525624752044678 0.948109209537506104 -0.828024148941040039
0.191270753741264343 3.67651820182800293 -1.32674682140350342
-0.161667034029960632 1.62895596027374268 -0.981852233409881592
-0.618820369243621826 2.36673116683959961 -0.720969974994659424
2.51023483276367188 6.78242969512939453 -1.03194379806518555
0.44234582781791687 4.0171356201171875 -0.85520094633102417
0.826822221279144287 1.29760801792144775 -1.13803422451019287
0.50420224666595459 2.80134201049804688 -0.838913977146148682
-0.228487089276313782 1.60748708248138428 -1.42932593822479248
1.21935796737670898 2.72835707664489746 -0.961732983589172363
0.25901329517364502 0.9524649977684021 -0.752058804035186768
-0.513526558876037598 2.20890283584594727 -0.77755272388458252
0.575045347213745117 1.54731082916259766 -1.04127442836761475
0.310377418994903564 0.964709639549255371 -0.822642982006072998
0.54079359769821167 1.10696280002593994 -1.08633303642272949
-0.0837606862187385559 1.49029552936553955 -0.771446824073791504
-1.03485989570617676 1.73957943916320801 -1.38388466835021973
0.747400224208831787 2.68660783767700195 -0.843456864356994629
0.246386036276817322 0.971443116664886475 -0.955705344676971436
-0.237168937921524048 2.00955438613891602 -1.40030562877655029
-3.40753817558288574 7.82146453857421875 0.129755899310112
-0.284391671419143677 1.43481457233428955 -1.46637177467346191
0.125495806336402893 3.54198670387268066 -0.984639108180999756
0.78927147388458252 4.26645994186401367 -0.811013758182525635
-0.542256653308868408 3.50259280204772949 -1.03759109973907471
-0.704993247985839844 1.44825839996337891 -1.43218719959259033
1.31791627407073975 7.11808300018310547 0.484522432088851929
0.297683507204055786 0.963440835475921631 -0.72325819730758667
-0.224370956420898438 1.74032449722290039 -1.00329649448394775
0.520402669906616211 1.51191282272338867 -1.03400719165802002
0.678459465503692627 1.16380190849304199 -0.894813179969787598
2.5978693962097168 6.70199155807495117 -1.13098394870758057
0.288236320018768311 1.97794640064239502 -1.01519787311553955
-0.155567020177841187 1.63260138034820557 -1.42642045021057129
2.63599014282226562 6.74443769454956055 -1.11216604709625244
-2.10261368751525879 4.89498233795166016 -1.03976941108703613
0.85905754566192627 1.25973701477050781 -1.12178826332092285
-0.67537003755569458 2.45230722427368164 -1.36838138103485107
1.18856954574584961 2.53761458396911621 -1.41130161285400391
-0.220445781946182251 1.71764755249023438 -0.76179349422454834
-0.286873459815979004 1.85049045085906982 -1.09492731094360352
0.300984382629394531 0.961849868297576904 -0.915877342224121094
-0.953041613101959229 1.89232397079467773 -1.39454984664916992
-0.799499809741973877 2.07471251487731934 -1.38328027725219727
0.547776937484741211 4.15457487106323242 -0.675856828689575195
-0.232366010546684265 1.67003977298736572 -1.4322282075881958
-2.59843182563781738 5.13892173767089844 -0.749660074710845947
0.41851314902305603 1.64423871040344238 -1.02313101291656494
0.0596130788326263428 1.26360177993774414 -0.836789071559906006
-0.907224833965301514 2.24795866012573242 -1.36447596549987793
-1.0514606237411499 3.29422187805175781 -1.35750532150268555
-0.189114570617675781 1.68173933029174805 -1.04331672191619873
0.041971694678068161 1.29196333885192871 -0.889223635196685791
-0.0785739272832870483 3.39709591865539551 -0.98307347297668457
0.120099671185016632 1.2252730131149292 -0.703245759010314941
-0.188093170523643494 1.67978596687316895 -0.988224923610687256
0.514834284782409668 1.48111391067504883 -1.02823185920715332
-0.0269709508866071701 1.50601232051849365 -1.39631962776184082
-0.499829322099685669 1.51012349128723145 -1.43794393539428711
1.00725042819976807 7.22151756286621094 -0.199295863509178162
-1.63799595832824707 5.25596952438354492 -1.27827286720275879
1.54990935325622559 7.21253633499145508 -0.0404494106769561768
-0.602811098098754883 1.94317185878753662 -1.40306878089904785
2.00164484977722168 2.66936540603637695 -1.33502805233001709
-0.833624482154846191 2.97283244132995605 -1.13205873966217041
-1.62234950065612793 5.20551013946533203 -1.14352941513061523
0.559033870697021484 3.68022561073303223 -0.969527184963226318
0.981118261814117432 2.66597223281860352 -0.848586916923522949
0.622094988822937012 2.78364944458007812 -0.836803019046783447
0.381462365388870239 1.67702829837799072 -1.02364277839660645
0.918073713779449463 4.46680259704589844 -0.636322379112243652
2.08296704292297363 2.91038918495178223 -1.14138591289520264
0.502067923545837402 1.06554830074310303 -0.898937761783599854
-2.53969144821166992 5.12860345840454102 -0.775576293468475342
-1.01185405254364014 2.4166865348815918 -1.36768209934234619
-0.738561034202575684 1.60097205638885498 -1.41682219505310059
0.652908265590667725 2.82801914215087891 -1.41324567794799805
1.06704044342041016 2.97856926918029785 -0.862491607666015625
1.13900113105773926 4.23836469650268555 -0.954637765884399414
-1.14298546314239502 7.39753627777099609 -0.742659211158752441
1.2500460147857666 2.04222893714904785 -1.44312393665313721
-0.28985828161239624 1.61623644828796387 -1.42916643619537354
-0.322224408388137817 3.529052734375 -0.835155844688415527
-0.189646497368812561 1.67380809783935547 -0.896145641803741455
0.635234296321868896 2.5577242374420166 -0.852740824222564697
-0.322103589773178101 1.45751798152923584 -1.441170334815979
0.411554247140884399 1.03032231330871582 -0.888512313365936279
0.438652932643890381 1.60206437110900879 -1.02843737602233887
